         0.0         0.0        -0.0
        0.53        1.44        0.03
         0.0         0.0        -0.0
        0.52        1.42       -0.08
        0.52        1.42       -0.29
        0.53        1.44        0.13
        0.53        1.43       -0.24
        0.52        1.43        0.19
        0.52        1.42       -0.19
        0.52        1.42        0.24
        0.52        1.41       -0.13
        0.52        1.43         0.3
        0.52        1.41       -0.08
        0.52        1.41        0.35
        0.52        1.41       -0.03
        0.52        1.41         0.4
         0.0         0.0        -0.0
        0.53        1.44        0.03
         0.0         0.0        -0.0
        0.53        1.43       -0.08
        0.53        1.43        -0.3
        0.53        1.43        0.13
        0.53        1.43       -0.24
        0.53        1.43        0.19
        0.53        1.43       -0.19
        0.53        1.42        0.24
        0.52        1.41       -0.13
        2.11        5.68        1.18
        0.53        1.43       -0.08
         2.1        5.64        1.39
        0.52        1.41       -0.03
        2.09        5.62        1.61
         0.0         0.0        -0.0
        0.54        1.43        0.03
         0.0         0.0        -0.0
        0.54        1.43       -0.08
        0.53        1.42        -0.3
         2.1        5.59        0.52
        0.54        1.44       -0.24
         2.1        5.58        0.73
        0.54        1.43       -0.19
        2.08        5.55        0.94
        0.53        1.42       -0.13
        2.13        5.67        1.18
        0.53        1.42       -0.08
        2.13        5.67         1.4
        0.53        1.42       -0.03
        2.13        5.68        1.62
         0.0         0.0        -0.0
        0.54        1.42        0.03
         0.0         0.0        -0.0
        0.54        1.44       -0.08
        0.55        1.44        -0.3
        2.12        5.58        0.52
        0.54        1.44       -0.24
        2.12        5.58        0.73
        0.55        1.44       -0.19
        2.11        5.56        0.94
        0.54        1.42       -0.13
         2.2        5.81        1.21
        0.54        1.42       -0.08
        2.19        5.78        1.43
        0.54        1.43       -0.03
        2.19        5.76        1.65
         0.0         0.0        -0.0
         0.0         0.0         0.0
         0.0         0.0        -0.0
        2.08        5.42        -0.3
        1.16        3.04       -0.63
        2.15         5.6        0.52
        1.43        3.72       -0.63
        2.14        5.59        0.74
        0.55        1.43       -0.19
        2.14        5.59        0.95
        2.11         5.5       -0.52
        2.25        5.87        1.22
        2.13        5.55       -0.31
        2.23        5.82        1.44
        2.13        5.56        -0.1
        2.21        5.78        1.66
         0.0         0.0        -0.0
        2.17         5.6        0.11
         0.0         0.0        -0.0
        2.13        5.49       -0.31
        1.17        3.03       -0.63
        2.17        5.61        0.53
        1.43         3.7       -0.63
        2.17        5.61        0.74
        1.82        4.69       -0.62
        2.17        5.61        0.95
        2.16        5.57       -0.52
        2.27        5.87        1.22
        2.17         5.6       -0.31
        2.25        5.82        1.44
        2.17        5.61        -0.1
        2.24        5.79        1.66
         0.0         0.0        -0.0
         2.2        5.61        0.11
         0.0         0.0        -0.0
        2.16        5.53       -0.31
        1.18        3.02       -0.63
         2.2        5.62        0.53
        1.44        3.69       -0.63
         2.2        5.63        0.74
        1.84         4.7       -0.62
         2.2        5.62        0.96
        2.18        5.58       -0.52
         2.3        5.87        1.23
         2.2        5.63       -0.32
        2.29        5.84        1.45
        2.19        5.61        -0.1
        2.26        5.79        1.67
         0.0         0.0        -0.0
        2.22        5.63        0.11
         0.0         0.0        -0.0
        2.19        5.55       -0.31
         1.2        3.03       -0.63
        2.23        5.63        0.53
        1.46        3.69       -0.63
        2.23        5.64        0.75
        1.85        4.69       -0.62
        2.23        5.64        0.96
        2.21        5.59       -0.53
        2.32        5.86        1.22
        2.22        5.63       -0.32
        2.31        5.85        1.45
        2.22        5.62       -0.11
         2.3        5.82        1.68
         0.0         0.0        -0.0
        2.25        5.64        0.11
         0.0         0.0        -0.0
        2.22        5.56       -0.31
         1.2        3.02       -0.63
        2.26        5.65        0.53
        1.47        3.68       -0.63
        2.25        5.64        0.75
        1.87        4.69       -0.62
        2.25        5.64        0.96
        2.25        5.63       -0.53
        2.33        5.83        1.22
        2.25        5.62       -0.32
        2.33        5.85        1.45
        2.25        5.64       -0.11
        2.33        5.84        1.68
         0.0         0.0        -0.0
        2.28        5.66        0.11
         0.0         0.0        -0.0
        2.25        5.57       -0.31
        1.22        3.02       -0.63
        2.28        5.66        0.53
        1.48        3.67       -0.63
        2.28        5.65        0.75
        1.88        4.67       -0.62
        2.28        5.65        0.96
        2.28        5.65       -0.53
        2.35        5.81        1.22
        2.28        5.65       -0.32
        2.34         5.8        1.44
        2.28        5.66       -0.11
        2.34        5.81        1.68
         0.0         0.0        -0.0
        2.31        5.68        0.11
         0.0         0.0        -0.0
        2.27        5.58       -0.32
        1.22         3.0       -0.63
        2.31        5.67        0.54
         1.5        3.67       -0.63
        2.31        5.66        0.75
         1.9        4.66       -0.62
         2.3        5.65        0.97
        2.31        5.68       -0.54
        2.37        5.81        1.22
        2.31        5.67       -0.32
        2.36        5.79        1.44
        2.31        5.67       -0.11
        2.36        5.79        1.68
         0.0         0.0        -0.0
        2.34        5.68        0.11
         0.0         0.0        -0.0
        2.31        5.61       -0.32
        1.24        3.01       -0.63
        2.33        5.67        0.54
        1.51        3.68       -0.63
        2.33        5.67        0.75
        1.92        4.66       -0.62
        2.33        5.67        0.97
        2.34        5.68       -0.54
         2.4        5.83        1.22
        2.34        5.69       -0.32
        2.38        5.79        1.45
        2.34        5.68       -0.11
        2.38        5.77        1.67
         0.0         0.0        -0.0
        2.36        5.69        0.11
         0.0         0.0        -0.0
        2.34        5.63       -0.32
        1.25         3.0       -0.63
        2.36        5.69        0.54
        1.52        3.66       -0.63
        2.36        5.69        0.76
        1.94        4.66       -0.62
        2.36        5.69        0.98
        2.36        5.69       -0.54
        2.41         5.8        1.22
        2.36        5.69       -0.32
        2.41        5.79        1.45
        2.36        5.67       -0.11
         2.4        5.79        1.68
         0.0         0.0        -0.0
        2.39         5.7        0.11
         0.0         0.0        -0.0
        2.37        5.64       -0.32
        1.25        2.98       -0.63
         2.4        5.71        0.54
        1.53        3.65       -0.63
        2.39        5.69        0.76
        1.95        4.65       -0.62
        2.39        5.71        0.98
        2.39         5.7       -0.54
        2.44        5.81        1.22
        2.39        5.69       -0.32
        2.44        5.82        1.46
        2.39        5.69       -0.11
        2.44        5.82        1.69
         0.0         0.0        -0.0
        2.42        5.71        0.11
         0.0         0.0        -0.0
        2.39        5.64       -0.32
        1.28        3.01       -0.64
        2.42        5.71        0.54
        1.55        3.66       -0.63
        2.42        5.71        0.76
        1.96        4.63       -0.62
        2.43        5.73        0.99
        2.43        5.73       -0.54
         2.5         5.9        1.25
        2.41         5.7       -0.32
         2.5        5.91        1.48
        2.42         5.7       -0.11
        2.52        5.95        1.73
         0.0         0.0        -0.0
        2.45        5.73        0.11
         0.0         0.0        -0.0
        2.42        5.66       -0.32
        1.27        2.98       -0.63
        2.45        5.72        0.54
        1.56        3.66       -0.63
        2.45        5.73        0.77
        1.98        4.63       -0.62
        2.45        5.73        0.99
        2.45        5.74       -0.55
        2.57         6.0        1.27
        2.44        5.71       -0.33
        2.55        5.97         1.5
        2.44         5.7       -0.11
        2.56        5.97        1.74
         0.0         0.0        -0.0
        2.49        5.76        0.11
         0.0         0.0        -0.0
        2.45        5.67       -0.32
        1.29        2.99       -0.63
        2.47        5.71        0.54
        1.58        3.66       -0.63
        2.48        5.75        0.77
         2.0        4.62       -0.62
        2.49        5.76        0.99
        2.47        5.72       -0.55
         2.6        6.02        1.27
        2.48        5.74       -0.33
         2.6        6.01        1.51
        2.47        5.73       -0.11
        2.58        5.97        1.74
         0.0         0.0        -0.0
        2.51        5.75        0.11
         0.0         0.0        -0.0
        2.47        5.67       -0.32
        1.32        3.02       -0.64
        2.49        5.72        0.55
        1.59        3.64       -0.63
        2.51        5.76        0.77
        2.01        4.61       -0.62
        2.52        5.79         1.0
         0.0         0.0        -0.0
        2.63        6.03        1.28
        2.51        5.76       -0.33
        2.63        6.03        1.52
        2.51        5.76       -0.11
        2.61        5.99        1.75
         0.0         0.0        -0.0
         0.0         0.0         0.0
         0.0         0.0        -0.0
        0.82        1.86       -0.11
         0.0         0.0        -0.0
        2.53        5.74        0.55
        0.85        1.94       -0.34
        2.54        5.77        0.77
        0.83        1.89       -0.25
        2.61        5.92        1.03
        0.81        1.85       -0.18
        2.65        6.02        1.28
         0.0         0.0        -0.0
        2.65        6.04        1.52
         0.0         0.0        -0.0
        2.64        6.01        1.76
         0.0         0.0        -0.0
        0.82        1.85        0.04
         0.0         0.0        -0.0
        0.82        1.85       -0.11
         0.0         0.0        -0.0
        2.56        5.77        0.55
        0.83        1.86       -0.32
        2.57        5.79        0.78
        0.83        1.87       -0.25
        2.65        5.97        1.03
        0.83        1.87       -0.18
        2.68        6.03        1.28
        0.82        1.85       -0.11
        2.67        6.02        1.52
        0.82        1.85       -0.04
        2.67        6.01        1.76
         0.0         0.0        -0.0
        0.84        1.88        0.04
         0.0         0.0        -0.0
        0.83        1.85       -0.11
         0.0         0.0        -0.0
        2.59        5.79        0.55
        0.84        1.86       -0.32
         2.6        5.81        0.78
        0.83        1.85       -0.25
        2.69         6.0        1.04
        0.83        1.85       -0.18
         2.7        6.03        1.28
        0.83        1.84       -0.11
        2.69        6.01        1.52
        0.82        1.84       -0.04
         2.7        6.02        1.77
         0.0         0.0        -0.0
        0.84        1.85        0.04
         0.0         0.0        -0.0
        0.84        1.86       -0.11
         0.0         0.0        -0.0
        2.63        5.82        0.56
        0.84        1.86       -0.32
        2.64        5.83        0.79
        0.83        1.84       -0.25
        2.72         6.0        1.04
        0.83        1.83       -0.18
        2.73        6.03        1.29
        0.84        1.87       -0.11
        2.72        6.01        1.52
        0.84        1.86       -0.04
        2.72        6.01        1.77
         0.0         0.0        -0.0
        0.85        1.87        0.04
         0.0         0.0        -0.0
        0.84        1.84       -0.11
         0.0         0.0        -0.0
        2.65         5.8        0.56
        0.85        1.85       -0.32
        2.67        5.85        0.79
        0.85        1.85       -0.25
        2.74        6.01        1.05
        0.84        1.83       -0.18
        2.74        6.01        1.28
        0.83        1.82        -0.1
        2.74        6.01        1.52
        0.84        1.84       -0.04
        2.75        6.02        1.77
         0.0         0.0        -0.0
        0.85        1.84        0.04
         0.0         0.0        -0.0
        0.85        1.83       -0.11
         0.0         0.0        -0.0
        2.69        5.83        0.56
        0.85        1.84       -0.32
         2.7        5.85        0.79
        0.85        1.86       -0.25
        2.77        6.01        1.05
        0.84        1.83       -0.18
        2.77        6.01        1.29
        0.83        1.81        -0.1
        2.77         6.0        1.53
        0.85        1.84       -0.04
        2.77        6.01        1.77
