       -3.17        6.07        1.58        7.03      242.42          72             814.307
       -0.44        0.85       -0.02        0.96      242.42          21             814.307
       -3.23        6.18        1.87        7.21      242.42           1             814.307
        -0.0         0.0        -0.0         0.0      242.62           4             814.307
       -0.46        0.89        0.02         1.0      242.62          24             814.307
       -0.36         0.7       -0.18         0.8      242.62          16             814.307
       -0.47        0.91       -0.05        1.03      242.62          26             814.307
       -0.38        0.73       -0.16        0.84      242.62          15             814.307
        -0.5        0.97         0.1         1.1      242.62          29             814.307
       -0.47        0.91       -0.16        1.04      242.62          37             814.307
        -0.0         0.0         0.0         0.0      242.62           1             814.307
       -0.45        0.88       -0.12         1.0      242.62          19             814.307
       -0.52        1.01        0.18        1.15      242.62          28             814.307
       -0.45        0.86       -0.09        0.98      242.62          20             814.307
       -0.55        1.06        0.23        1.21      242.62          23             814.307
       -0.44        0.85       -0.05        0.96      242.62          20             814.307
       -3.15        6.08        1.58        7.03      242.62          72             814.307
       -0.44        0.85       -0.02        0.96      242.62          22             814.307
        -3.2        6.17        1.86         7.2      242.62           1             814.307
        -0.0         0.0        -0.0         0.0      242.81           4             814.307
       -0.47        0.91        0.02        1.02      242.81          29             814.307
       -0.36        0.69       -0.18         0.8      242.81          19             814.307
       -0.47        0.91       -0.05        1.03      242.81          30             814.307
       -0.37        0.73       -0.16        0.84      242.81          14             814.307
        -0.5        0.97         0.1         1.1      242.81          29             814.307
       -0.47        0.92       -0.16        1.05      242.81          40             814.307
        -0.0         0.0         0.0         0.0      242.81           1             814.307
       -0.46        0.89       -0.12        1.01      242.81          21             814.307
       -0.52        1.01        0.18        1.15      242.81          24             814.307
       -0.45        0.88       -0.09        0.99      242.81          22             814.307
       -0.54        1.05        0.23        1.21      242.81          12             814.307
       -0.45        0.87       -0.05        0.98      242.81          21             814.307
       -3.13         6.1        1.58        7.04      242.81          77             814.307
       -0.44        0.85       -0.02        0.96      242.81          22             814.307
       -3.18        6.19        1.86         7.2      242.81           1             814.307
        -0.0         0.0        -0.0         0.0      243.01           4             814.307
       -0.46         0.9        0.02        1.01      243.01          28             814.307
       -0.36         0.7       -0.18         0.8      243.01          19             814.307
       -0.47        0.93       -0.05        1.04      243.01          30             814.307
       -0.37        0.73       -0.16        0.83      243.01          15             814.307
        -0.5        0.98         0.1         1.1      243.01          29             814.307
       -0.47        0.92       -0.16        1.05      243.01          42             814.307
        -0.0         0.0         0.0         0.0      243.01           1             814.307
       -0.47        0.92       -0.13        1.04      243.01          22             814.307
       -0.53        1.03        0.18        1.17      243.01          20             814.307
       -0.45        0.88       -0.09         1.0      243.01          22             814.307
       -3.11        6.11        1.33        6.98      243.01          13             814.307
       -0.45        0.88       -0.05        0.99      243.01          21             814.307
       -3.11        6.11        1.58        7.04      243.01          72             814.307
       -0.44        0.86       -0.02        0.96      243.01          23             814.307
       -3.16         6.2        1.86         7.2      243.01           1             814.307
        -0.0         0.0        -0.0         0.0      243.21           4             814.307
       -0.46        0.91        0.02        1.02      243.21          30             814.307
       -0.35        0.69       -0.18        0.79      243.21          19             814.307
       -0.48        0.95       -0.06        1.06      243.21          31             814.307
       -0.36        0.72       -0.16        0.82      243.21          15             814.307
        -0.5        0.99         0.1        1.11      243.21          29             814.307
       -0.47        0.93       -0.16        1.05      243.21          42             814.307
        -0.0         0.0         0.0         0.0      243.21           1             814.307
       -0.47        0.93       -0.13        1.05      243.21          22             814.307
       -0.53        1.05        0.19        1.19      243.21          18             814.307
       -0.45        0.89       -0.09         1.0      243.21          21             814.307
       -3.08         6.1        1.33        6.96      243.21          35             814.307
       -0.44        0.88       -0.05        0.99      243.21          22             814.307
       -3.09        6.13        1.58        7.04      243.21          72             814.307
       -0.45         0.9       -0.02         1.0      243.21          22             814.307
       -3.14        6.21        1.87        7.21      243.21           1             814.307
        -0.0         0.0        -0.0         0.0      243.41           4             814.307
       -0.46        0.92        0.02        1.02      243.41          33             814.307
       -0.34        0.68       -0.18        0.78      243.41          19             814.307
       -0.47        0.94       -0.06        1.05      243.41          33             814.307
       -0.36        0.72       -0.16        0.82      243.41          15             814.307
        -0.5         1.0         0.1        1.12      243.41          29             814.307
       -0.47        0.94       -0.17        1.06      243.41          42             814.307
        -0.0         0.0         0.0         0.0      243.41           1             814.307
       -0.46        0.92       -0.13        1.04      243.41          26             814.307
       -0.54        1.07        0.19        1.21      243.41          18             814.307
       -0.45        0.91       -0.09        1.02      243.41          22             814.307
        -0.0         0.0         0.0         0.0      243.41           1             814.307
       -0.44        0.88       -0.05        0.99      243.41          22             814.307
       -3.07        6.12        1.58        7.03      243.41          77             814.307
       -0.45         0.9       -0.02        1.01      243.41          22             814.307
        -3.1        6.19        1.85        7.17      243.41           1             814.307
        -0.0         0.0        -0.0         0.0      243.61           4             814.307
       -0.47        0.94        0.02        1.05      243.61          40             814.307
       -0.34        0.68       -0.18        0.78      243.61          20             814.307
       -0.48        0.96       -0.06        1.08      243.61          37             814.307
       -0.36        0.72       -0.16        0.82      243.61          13             814.307
        -0.5         1.0         0.1        1.12      243.61          25             814.307
       -0.47        0.95       -0.17        1.07      243.61          40             814.307
        -0.0         0.0         0.0         0.0      243.61           1             814.307
       -0.47        0.94       -0.13        1.06      243.61          26             814.307
       -1.45        2.92        0.52         3.3      243.61          12             814.307
       -0.45        0.91       -0.09        1.02      243.61          21             814.307
       -3.06        6.16        1.34        7.01      243.61           1             814.307
       -0.44         0.9       -0.05         1.0      243.61          21             814.307
       -3.04        6.13        1.58        7.02      243.61          72             814.307
       -0.45        0.91       -0.02        1.01      243.61          25             814.307
       -3.09        6.23        1.86         7.2      243.61           1             814.307
        -0.0         0.0        -0.0         0.0      243.81           4             814.307
       -0.47        0.96        0.02        1.07      243.81          39             814.307
       -0.34        0.69       -0.18        0.79      243.81          19             814.307
       -0.48        0.98       -0.06        1.09      243.81          37             814.307
       -0.35        0.72       -0.15        0.81      243.81          13             814.307
       -0.49        0.99         0.1         1.1      243.81          18             814.307
       -0.48        0.97       -0.17        1.09      243.81          40             814.307
        -0.0         0.0         0.0         0.0      243.81           1             814.307
       -0.46        0.94       -0.13        1.06      243.81          26             814.307
       -1.44        2.93        0.52        3.31      243.81          30             814.307
       -0.45        0.92       -0.09        1.03      243.81          22             814.307
       -3.04        6.17        1.34        7.01      243.81           1             814.307
       -0.44        0.89       -0.05         1.0      243.81          25             814.307
       -3.02        6.14        1.58        7.03      243.81          67             814.307
       -0.45        0.92       -0.02        1.02      243.81          28             814.307
       -3.07        6.24        1.86         7.2      243.81           1             814.307
        -0.0         0.0        -0.0         0.0      244.01           4             814.307
       -0.47        0.96        0.02        1.06      244.01          39             814.307
       -0.33        0.69       -0.18        0.78      244.01          20             814.308
       -0.48        0.99       -0.06         1.1      244.01          38             814.308
       -0.35        0.71       -0.15         0.8      244.01          15             814.308
       -0.48        0.98         0.1         1.1      244.01           7             814.308
       -0.47        0.96       -0.17        1.09      244.01          40             814.308
        -0.0         0.0         0.0         0.0      244.01           1             814.308
       -0.47        0.96       -0.13        1.07      244.01          25             814.308
       -1.44        2.95        0.52        3.32      244.01          35             814.308
       -0.45        0.93       -0.09        1.04      244.01          22             814.308
       -3.01        6.18        1.34        7.01      244.01           1             814.308
       -0.45        0.93       -0.05        1.04      244.01          27             814.308
        -3.0        6.16        1.58        7.04      244.01          77             814.308
       -0.47        0.96       -0.02        1.07      244.01          38             814.308
       -3.04        6.23        1.86        7.18      244.01           1             814.308
        -0.0         0.0        -0.0         0.0      244.21           4             814.308
       -0.46        0.96        0.02        1.06      244.21          40             814.308
       -0.33        0.68       -0.17        0.78      244.21          20             814.308
       -0.48         1.0       -0.06        1.11      244.21          51             814.308
       -0.35        0.72       -0.15        0.81      244.21          15             814.308
       -0.46        0.96        0.09        1.07      244.21           3             814.308
       -0.47        0.98       -0.17         1.1      244.21          38             814.308
        -0.0         0.0         0.0         0.0      244.21           1             814.308
       -0.46        0.96       -0.13        1.07      244.21          25             814.308
       -1.42        2.94        0.52        3.31      244.21          28             814.308
       -0.45        0.93       -0.09        1.04      244.21          22             814.308
       -2.99        6.18        1.33        6.99      244.21           1             814.308
       -0.45        0.93       -0.05        1.04      244.21          27             814.308
       -2.98        6.17        1.58        7.04      244.21          72             814.308
       -0.44        0.92       -0.02        1.02      244.21          31             814.308
       -3.03        6.27        1.87        7.21      244.21           1             814.308
        -0.0         0.0        -0.0         0.0      244.41           4             814.308
       -0.47        0.98        0.02        1.09      244.41          40             814.308
       -0.33         0.7       -0.18        0.79      244.41          22             814.308
       -0.48         1.0       -0.06        1.11      244.41          40             814.308
       -0.35        0.72       -0.16        0.82      244.41          15             814.308
       -0.37        0.77        0.07        0.86      244.41           2             814.308
       -0.47        0.99       -0.17        1.11      244.41          37             814.308
        -0.0         0.0         0.0         0.0      244.41           1             814.308
       -0.46        0.96       -0.13        1.07      244.41          33             814.308
       -1.41        2.95        0.52        3.31      244.41          15             814.308
       -0.45        0.95       -0.09        1.05      244.41          26             814.308
       -2.97         6.2        1.34         7.0      244.41           1             814.308
       -0.45        0.93       -0.05        1.04      244.41          29             814.308
       -2.96        6.17        1.58        7.02      244.41          77             814.308
       -0.45        0.93       -0.02        1.03      244.41          31             814.308
        -3.0        6.26        1.86        7.19      244.41           1             814.308
        -0.0         0.0        -0.0         0.0      244.61           4             814.308
       -0.47        0.99        0.02         1.1      244.61          39             814.308
       -0.33         0.7       -0.18        0.79      244.61          23             814.308
       -0.47         1.0       -0.06         1.1      244.61          47             814.308
       -0.34        0.73       -0.16        0.82      244.61          18             814.308
        -0.3        0.63        0.06         0.7      244.61           1             814.308
       -0.47        0.99       -0.17        1.11      244.61          38             814.308
        -0.0         0.0         0.0         0.0      244.61           1             814.308
       -0.47        0.99       -0.13         1.1      244.61          32             814.308
        -1.4        2.95        0.52        3.31      244.61           8             814.308
       -0.46        0.97       -0.09        1.08      244.61          38             814.308
       -2.96        6.23        1.34        7.03      244.61           1             814.308
       -0.45        0.95       -0.06        1.05      244.61          31             814.308
       -2.93        6.18        1.58        7.02      244.61          72             814.308
       -0.46        0.96       -0.02        1.06      244.61          37             814.308
       -2.97        6.27        1.86        7.18      244.61           1             814.308
        -0.0         0.0        -0.0         0.0      244.81           4             814.308
       -0.47         1.0        0.02        1.11      244.81          40             814.308
       -0.33         0.7       -0.18        0.79      244.81          23             814.308
       -0.47         1.0       -0.06        1.11      244.81          47             814.308
       -0.33         0.7       -0.15        0.79      244.81          16             814.308
       -0.28        0.61        0.06        0.67      244.81           1             814.308
       -0.47        1.01       -0.18        1.13      244.81          38             814.308
        -0.0         0.0         0.0         0.0      244.81           1             814.308
       -0.47        0.99       -0.13         1.1      244.81          33             814.308
       -1.39        2.95        0.52         3.3      244.81           4             814.308
       -0.45        0.96       -0.09        1.06      244.81          33             814.308
       -2.94        6.26        1.34        7.04      244.81           1             814.308
       -0.46        0.99       -0.06        1.09      244.81          42             814.308
       -2.92         6.2        1.58        7.03      244.81          77             814.308
       -0.45        0.96       -0.02        1.06      244.81          37             814.308
       -2.94        6.25        1.85        7.15      244.81           1             814.308
        -0.0         0.0        -0.0         0.0       245.0           4             814.308
       -0.47         1.0        0.02        1.11       245.0          39             814.308
       -0.33         0.7       -0.18         0.8       245.0          26             814.308
       -0.47        1.02       -0.06        1.12       245.0          38             814.308
       -0.33         0.7       -0.15        0.79       245.0          15             814.308
       -0.28         0.6        0.06        0.67       245.0           1             814.308
       -0.46        0.99       -0.17         1.1       245.0          34             814.308
        -0.0         0.0         0.0         0.0       245.0           1             814.308
       -0.47        1.01       -0.14        1.12       245.0          42             814.308
       -1.38        2.96        0.52         3.3       245.0           2             814.308
       -0.45        0.96       -0.09        1.07       245.0          34             814.308
       -2.94         6.3        1.35        7.09       245.0           1             814.308
       -0.44        0.95       -0.06        1.05       245.0          36             814.308
       -2.89        6.21        1.58        7.03       245.0          72             814.308
       -0.45        0.97       -0.02        1.07       245.0          40             814.308
       -2.93        6.28        1.86        7.18       245.0           1             814.308
        -0.0         0.0        -0.0         0.0       245.2           4             814.308
       -0.46        1.01        0.02        1.11       245.2          39             814.308
       -0.32         0.7       -0.18        0.79       245.2          23             814.308
       -0.47        1.02       -0.06        1.13       245.2          17             814.308
       -0.33        0.71       -0.15         0.8       245.2          16             814.308
       -0.28         0.6        0.06        0.66       245.2           1             814.308
       -0.46        0.99       -0.17        1.11       245.2          32             814.308
        -0.0         0.0         0.0         0.0       245.2           1             814.308
       -0.47        1.01       -0.14        1.12       245.2          43             814.308
       -1.36        2.94        0.51        3.28       245.2           1             814.308
       -0.45        0.97       -0.09        1.08       245.2          35             814.308
       -2.89        6.25        1.34        7.02       245.2           1             814.308
       -0.45        0.97       -0.06        1.07       245.2          38             814.308
       -2.88        6.22        1.58        7.04       245.2          77             814.308
       -0.46        0.99       -0.02        1.09       245.2          40             814.308
       -2.91        6.29        1.86        7.18       245.2           1             814.308
        -0.0         0.0        -0.0         0.0       245.4           4             814.308
       -0.47        1.02        0.02        1.12       245.4          37             814.308
       -0.32         0.7       -0.18        0.79       245.4          23             814.308
       -0.46         1.0       -0.06         1.1       245.4           3             814.308
       -0.33        0.72       -0.15        0.81       245.4          18             814.308
       -0.31        0.67        0.06        0.74       245.4           1             814.308
       -0.46         1.0       -0.17        1.12       245.4          26             814.308
        -0.0         0.0         0.0         0.0       245.4           1             814.308
       -0.46        1.01       -0.14        1.12       245.4          43             814.308
       -1.36        2.97        0.52        3.31       245.4           0             814.308
       -0.45        0.98       -0.09        1.08       245.4          36             814.308
       -2.85        6.23        1.33        6.98       245.4           1             814.308
       -0.44        0.95       -0.05        1.05       245.4          36             814.308
       -2.85        6.23        1.58        7.03       245.4          72             814.308
       -0.45        0.99       -0.02        1.09       245.4          43             814.308
       -2.89        6.31        1.86        7.19       245.4           1             814.308
        -0.0         0.0        -0.0         0.0       245.6           4             814.308
       -0.45         1.0        0.02         1.1       245.6          18             814.308
       -0.32         0.7       -0.18        0.79       245.6          23             814.308
        -0.0         0.0        -0.0         0.0       245.6           2             814.308
       -0.32         0.7       -0.15        0.78       245.6          16             814.308
       -0.29        0.65        0.06        0.72       245.6           1             814.308
       -0.44        0.98       -0.17        1.09       245.6          19             814.308
        -0.0         0.0         0.0         0.0       245.6           1             814.308
       -0.46        1.02       -0.14        1.13       245.6          41             814.308
       -1.35        2.98        0.52        3.32       245.6           0             814.308
       -0.46        1.01        -0.1        1.11       245.6          38             814.308
       -2.82        6.22        1.33        6.96       245.6           4             814.308
       -0.45         1.0       -0.06         1.1       245.6          38             814.308
       -2.83        6.23        1.58        7.02       245.6          72             814.308
       -0.45        0.99       -0.02        1.09       245.6          43             814.308
       -2.86         6.3        1.85        7.16       245.6           1             814.308
        -0.0         0.0        -0.0         0.0       245.8           4             814.308
       -0.45        1.01        0.02        1.11       245.8           4             814.308
       -0.32         0.7       -0.18        0.79       245.8          23             814.308
        -0.0         0.0        -0.0         0.0       245.8           2             814.308
       -0.31         0.7       -0.15        0.78       245.8          16             814.308
       -0.29        0.65        0.06        0.72       245.8           1             814.308
       -0.44        0.98       -0.17        1.09       245.8          17             814.308
        -0.0         0.0         0.0         0.0       245.8           1             814.308
       -0.46        1.03       -0.14        1.13       245.8          41             814.308
       -1.36        3.03        0.53        3.36       245.8           0             814.308
       -0.44        0.98       -0.09        1.08       245.8          35             814.308
        -0.0         0.0         0.0         0.0       245.8          51             814.308
       -0.45         1.0       -0.06        1.09       245.8          40             814.308
       -2.78        6.19        1.57        6.96       245.8          51             814.308
       -0.44        0.97       -0.02        1.06       245.8          30             814.308
        -0.0         0.0         0.0         0.0       245.8          31             814.308
        -0.0         0.0        -0.0         0.0      245.99           4             814.308
        -0.0         0.0         0.0         0.0      245.99           1             814.308
       -0.31         0.7       -0.18        0.79      245.99          23             814.308
        -0.0         0.0        -0.0         0.0      245.99           2             814.308
       -0.32        0.72       -0.15        0.81      245.99          18             814.308
       -0.28        0.62        0.06        0.68      245.99           1             814.308
       -0.42        0.95       -0.16        1.05      245.99          14             814.308
        -0.0         0.0         0.0         0.0      245.99           1             814.308
       -0.45        1.02       -0.14        1.13      245.99          43             814.308
        -0.0         0.0         0.0         0.0      245.99           1             814.308
       -0.44        0.99        -0.1        1.09      245.99          36             814.308
       -2.75        6.17        1.31        6.88      245.99          55             814.308
       -0.45        1.01       -0.06        1.11      245.99          38             814.308
       -2.75        6.17        1.56        6.93      245.99          57             814.308
       -0.45         1.0       -0.02        1.09      245.99          10             814.308
       -2.74        6.16        1.81        6.98      245.99          49             814.308
        -0.0         0.0        -0.0         0.0      246.19           4             814.308
       -0.29        0.66        0.01        0.72      246.19           1             814.308
       -0.31         0.7       -0.18        0.79      246.19          23             814.308
        -0.0         0.0        -0.0         0.0      246.19           2             814.308
       -0.32        0.72       -0.15         0.8      246.19          18             814.308
       -0.28        0.63        0.06        0.69      246.19           1             814.308
       -0.42        0.95       -0.16        1.05      246.19          15             814.308
        -0.0         0.0         0.0         0.0      246.19           1             814.308
       -0.46        1.03       -0.14        1.14      246.19          37             814.308
        -0.0         0.0         0.0         0.0      246.19           1             814.308
       -0.44         1.0        -0.1         1.1      246.19          36             814.308
       -2.74        6.21        1.32        6.92      246.19          58             814.308
       -0.43        0.98       -0.06        1.07      246.19          29             814.308
       -2.74        6.21        1.57        6.97      246.19          60             814.308
       -0.42        0.96       -0.02        1.05      246.19           1             814.308
       -2.74        6.21        1.82        7.02      246.19          84             814.308
        -0.0         0.0        -0.0         0.0      246.39           4             814.308
        -0.3        0.69        0.01        0.75      246.39           1             814.308
       -0.31         0.7       -0.18        0.79      246.39          26             814.308
        -0.0         0.0        -0.0         0.0      246.39           2             814.308
       -0.31         0.7       -0.15        0.78      246.39          16             814.308
       -0.27        0.63        0.06        0.69      246.39           1             814.308
       -0.41        0.94       -0.16        1.04      246.39          15             814.308
       -0.29        0.67        0.09        0.73      246.39           1             814.308
       -0.45        1.03       -0.14        1.13      246.39          41             814.308
        -0.0         0.0         0.0         0.0      246.39           1             814.308
       -0.44        1.01        -0.1         1.1      246.39          36             814.308
       -2.72        6.23        1.32        6.93      246.39          69             814.308
       -0.44         1.0       -0.06        1.09      246.39          15             814.308
       -2.72        6.22        1.57        6.97      246.39          55             814.308
       -0.32        0.73       -0.01         0.8      246.39           1             814.308
       -2.72        6.22        1.82        7.03      246.39          54             814.308
        -0.0         0.0        -0.0         0.0      246.59           4             814.308
       -0.29        0.67        0.01        0.73      246.59           1             814.308
        -0.3         0.7       -0.18        0.78      246.59          26             814.308
        -0.0         0.0        -0.0         0.0      246.59           2             814.308
       -0.31        0.72       -0.15        0.79      246.59          18             814.308
       -0.28        0.64        0.06         0.7      246.59           1             814.308
        -0.4        0.93       -0.16        1.03      246.59          14             814.308
        -0.0         0.0         0.0         0.0      246.59           1             814.308
       -0.45        1.03       -0.14        1.13      246.59          41             814.308
        -0.0         0.0         0.0         0.0      246.59           1             814.308
       -0.44        1.01        -0.1        1.11      246.59          25             814.308
       -2.69        6.22        1.32         6.9      246.59          53             814.308
       -0.43        0.99       -0.06        1.08      246.59           4             814.308
       -2.68         6.2        1.56        6.93      246.59          48             814.308
       -0.29        0.68       -0.01        0.74      246.59           1             814.308
       -2.69        6.21        1.81         7.0      246.59          56             814.308
        -0.0         0.0        -0.0         0.0      246.79           4             814.308
       -0.29        0.68        0.01        0.74      246.79           1             814.308
        -0.3         0.7       -0.18        0.79      246.79          23             814.308
        -0.0         0.0        -0.0         0.0      246.79           2             814.308
        -0.3        0.71       -0.15        0.79      246.79          19             814.308
       -0.28        0.66        0.06        0.72      246.79           1             814.308
        -0.4        0.93       -0.16        1.03      246.79          14             814.308
        -0.0         0.0         0.0         0.0      246.79           1             814.308
       -0.45        1.05       -0.14        1.15      246.79          32             814.308
        -0.0         0.0         0.0         0.0      246.79           1             814.308
       -0.44        1.02        -0.1        1.11      246.79           9             814.308
       -2.66        6.21        1.31        6.89      246.79          68             814.308
        -0.0         0.0        -0.0         0.0      246.79           3             814.308
       -2.66         6.2        1.56        6.92      246.79          64             814.308
       -0.29        0.68       -0.01        0.74      246.79           1             814.308
       -2.65        6.19         1.8        6.97      246.79          54             814.308
        -0.0         0.0        -0.0         0.0      246.99           4             814.308
       -0.27        0.64        0.01         0.7      246.99           1             814.308
        -0.3         0.7       -0.18        0.78      246.99          23             814.308
        -0.0         0.0        -0.0         0.0      246.99           2             814.308
        -0.3        0.72       -0.15        0.79      246.99          18             814.308
       -0.28        0.66        0.06        0.72      246.99           1             814.308
       -0.39        0.92       -0.16        1.01      246.99          13             814.308
       -0.28        0.67        0.09        0.73      246.99           1             814.308
       -0.45        1.05       -0.14        1.15      246.99          20             814.308
        -0.0         0.0         0.0         0.0      246.99           1             814.308
        -0.4        0.95       -0.09        1.04      246.99           2             814.308
       -2.64        6.22        1.31        6.88      246.99          53             814.308
        -0.3         0.7       -0.04        0.77      246.99           2             814.308
       -2.64        6.22        1.56        6.94      246.99          38             814.308
       -0.28        0.67       -0.01        0.73      246.99           1             814.308
       -2.64        6.22        1.81         7.0      246.99          42             814.308
        -0.0         0.0        -0.0         0.0      247.19           4             814.308
       -0.27        0.65        0.01         0.7      247.19           1             814.308
       -0.29         0.7       -0.18        0.78      247.19          26             814.308
        -0.0         0.0        -0.0         0.0      247.19           2             814.308
       -0.29        0.69       -0.15        0.77      247.19          16             814.308
       -0.28        0.66        0.06        0.72      247.19           1             814.308
       -0.39        0.92       -0.16        1.01      247.19          11             814.308
       -0.28        0.67        0.09        0.73      247.19           1             814.308
       -0.44        1.06       -0.14        1.15      247.19          11             814.308
        -0.0         0.0         0.0         0.0      247.19           1             814.308
       -0.27        0.65       -0.06         0.7      247.19           1             814.308
       -2.62        6.24        1.32         6.9      247.19          61             814.308
        -0.3        0.72       -0.04        0.78      247.19           2             814.308
       -2.63        6.25        1.57        6.96      247.19          60             814.308
       -0.29         0.7       -0.01        0.76      247.19           1             814.308
       -2.62        6.23        1.81         7.0      247.19          52             814.308
        -0.0         0.0        -0.0         0.0      247.39           4             814.308
       -0.27        0.66        0.01        0.71      247.39           1             814.308
       -0.29         0.7       -0.17        0.77      247.39          26             814.308
        -0.0         0.0        -0.0         0.0      247.39           2             814.308
        -0.3        0.71       -0.15        0.78      247.39          18             814.308
       -0.26        0.63        0.06        0.68      247.39           1             814.308
       -0.38        0.92       -0.16        1.01      247.39          11             814.308
       -0.28        0.67        0.09        0.73      247.39           1             814.308
       -0.44        1.05       -0.14        1.14      247.39           3             814.308
        -0.0         0.0         0.0         0.0      247.39           1             814.308
       -0.27        0.65       -0.06        0.71      247.39           1             814.308
       -2.61        6.26        1.32        6.91      247.39          65             814.308
       -0.27        0.65       -0.04        0.71      247.39           3             814.308
        -2.6        6.25        1.56        6.95      247.39          60             814.308
       -0.29         0.7       -0.01        0.75      247.39           1             814.308
        -2.6        6.24        1.81         7.0      247.39          52             814.308
        -0.0         0.0        -0.0         0.0       247.6           4             814.308
       -0.29         0.7        0.01        0.75       247.6           1             814.308
       -0.29         0.7       -0.18        0.78       247.6          23             814.308
        -0.3        0.72       -0.04        0.78       247.6           1             814.308
       -0.29        0.71       -0.15        0.78       247.6          18             814.309
       -0.26        0.62        0.06        0.68       247.6           1             814.309
       -0.37        0.91       -0.16        0.99       247.6          10             814.309
        -0.0         0.0         0.0         0.0       247.6           1             814.309
       -0.29        0.69       -0.09        0.76       247.6           1             814.309
        -0.0         0.0         0.0         0.0       247.6           1             814.309
       -0.26        0.64       -0.06        0.69       247.6           1             814.309
       -2.59        6.28        1.32        6.92       247.6          65             814.309
       -0.28        0.67       -0.04        0.73       247.6           3             814.309
       -2.58        6.27        1.57        6.96       247.6          67             814.309
       -0.28        0.67       -0.01        0.72       247.6           1             814.309
       -2.58        6.25        1.81         7.0       247.6          49             814.309
        -0.0         0.0        -0.0         0.0       247.8           4             814.309
       -0.28         0.7        0.01        0.75       247.8           1             814.309
       -0.29        0.71       -0.18        0.78       247.8          23             814.309
       -0.29        0.72       -0.04        0.78       247.8           1             814.309
       -0.28        0.69       -0.14        0.76       247.8          16             814.309
       -0.27        0.66        0.06        0.72       247.8           1             814.309
       -0.37        0.91       -0.16         1.0       247.8          10             814.309
       -0.27        0.67        0.09        0.73       247.8           1             814.309
       -0.26        0.64       -0.09         0.7       247.8           1             814.309
        -0.0         0.0         0.0         0.0       247.8           1             814.309
       -0.27        0.66       -0.06        0.71       247.8           1             814.309
       -2.57         6.3        1.32        6.93       247.8          43             814.309
       -0.28        0.69       -0.04        0.75       247.8           3             814.309
       -2.57         6.3        1.57        6.99       247.8          42             814.309
        -0.0         0.0        -0.0         0.0       247.8           1             814.309
       -2.57        6.29        1.82        7.04       247.8          71             814.309
        -0.0         0.0        -0.0         0.0      247.99           4             814.309
       -0.26        0.65        0.01         0.7      247.99           1             814.309
       -0.28         0.7       -0.18        0.78      247.99          23             814.309
       -0.29        0.72       -0.04        0.78      247.99           1             814.309
       -0.29        0.71       -0.15        0.78      247.99          20             814.309
       -0.27        0.66        0.06        0.72      247.99           1             814.309
       -0.36         0.9       -0.15        0.98      247.99           8             814.309
       -0.27        0.67        0.09        0.73      247.99           1             814.309
       -0.28         0.7       -0.09        0.76      247.99           1             814.309
        -0.0         0.0         0.0         0.0      247.99           1             814.309
       -0.26        0.63       -0.06        0.68      247.99           1             814.309
       -2.54        6.28        1.32         6.9      247.99          58             814.309
       -0.28        0.69       -0.04        0.75      247.99           3             814.309
       -2.54        6.29        1.57        6.96      247.99          57             814.309
       -0.28        0.69       -0.01        0.74      247.99           1             814.309
       -2.54        6.29        1.82        7.02      247.99          56             814.309
        -0.0         0.0        -0.0         0.0      248.19           4             814.309
       -0.26        0.65        0.01         0.7      248.19           1             814.309
       -0.28         0.7       -0.17        0.77      248.19          22             814.309
       -0.29        0.72       -0.04        0.78      248.19           1             814.309
       -0.29        0.71       -0.15        0.78      248.19          19             814.309
       -0.27        0.66        0.06        0.72      248.19           1             814.309
       -0.35        0.88       -0.15        0.96      248.19           7             814.309
       -0.27        0.67        0.09        0.73      248.19           1             814.309
       -0.28         0.7       -0.09        0.76      248.19           1             814.309
        -0.0         0.0         0.0         0.0      248.19           1             814.309
       -0.27        0.67       -0.06        0.72      248.19           1             814.309
        -2.5        6.25        1.31        6.86      248.19          65             814.309
       -0.28        0.69       -0.04        0.75      248.19           3             814.309
       -2.51        6.27        1.56        6.93      248.19          55             814.309
       -0.28        0.71       -0.01        0.76      248.19           1             814.309
       -2.51        6.28        1.81        7.01      248.19          57             814.309
        -0.0         0.0        -0.0         0.0      248.38           4             814.309
       -0.25        0.64        0.01        0.68      248.38           1             814.309
       -0.28         0.7       -0.17        0.77      248.38          22             814.309
       -0.29        0.72       -0.04        0.78      248.38           1             814.309
       -0.28        0.71       -0.15        0.78      248.38          18             814.309
       -0.25        0.63        0.06        0.68      248.38           1             814.309
       -0.34        0.87       -0.15        0.94      248.38           3             814.309
       -0.27        0.68        0.09        0.73      248.38           1             814.309
       -0.28         0.7       -0.09        0.76      248.38           1             814.309
        -0.0         0.0         0.0         0.0      248.38           1             814.309
       -0.26        0.66       -0.06        0.71      248.38           1             814.309
        -2.5        6.31        1.32        6.92      248.38          66             814.309
       -0.27        0.67       -0.04        0.72      248.38           3             814.309
        -2.5         6.3        1.56        6.95      248.38          64             814.309
       -0.28        0.71       -0.01        0.76      248.38           1             814.309
        -2.5        6.31        1.82        7.02      248.38          59             814.309
        -0.0         0.0        -0.0         0.0      248.58           4             814.309
       -0.26        0.66        0.01         0.7      248.58           1             814.309
       -0.27        0.69       -0.17        0.76      248.58          20             814.309
       -0.28        0.72       -0.04        0.78      248.58           1             814.309
       -0.27        0.69       -0.14        0.76      248.58          13             814.309
       -0.26        0.66        0.06        0.72      248.58           1             814.309
        -0.3        0.77       -0.13        0.84      248.58           1             814.309
       -0.27        0.68        0.09        0.73      248.58           1             814.309
       -0.27         0.7       -0.09        0.76      248.58           1             814.309
        -0.0         0.0         0.0         0.0      248.58           1             814.309
       -0.25        0.65       -0.06         0.7      248.58           1             814.309
       -2.47         6.3        1.32         6.9      248.58          61             814.309
       -0.26        0.67       -0.04        0.72      248.58           3             814.309
       -2.46        6.28        1.56        6.93      248.58          64             814.309
       -0.27        0.69       -0.01        0.74      248.58           1             814.309
       -2.47        6.29        1.81         7.0      248.58          50             814.309
        -0.0         0.0        -0.0         0.0      248.78           4             814.309
       -0.26        0.66        0.01        0.71      248.78           1             814.309
       -0.27        0.69       -0.17        0.76      248.78          19             814.309
       -0.28        0.72       -0.04        0.78      248.78           1             814.309
       -0.26        0.67       -0.14        0.73      248.78           7             814.309
       -0.24        0.63        0.06        0.68      248.78           1             814.309
       -0.27        0.69       -0.12        0.75      248.78           1             814.309
       -0.24        0.62        0.08        0.67      248.78           1             814.309
       -0.27         0.7       -0.09        0.76      248.78           1             814.309
       -0.27        0.71        0.12        0.77      248.78           1             814.309
       -0.24        0.63       -0.06        0.68      248.78           1             814.309
       -2.45         6.3        1.31        6.88      248.78          53             814.309
       -0.26        0.66       -0.04        0.71      248.78           3             814.309
       -2.45        6.31        1.56        6.94      248.78          42             814.309
       -0.26        0.67       -0.01        0.72      248.78           1             814.309
       -2.44        6.29        1.81        6.99      248.78          52             814.309
        -0.0         0.0        -0.0         0.0      248.99           4             814.309
