        2.61       -1.19       -0.77        2.97       24.49           8     1514205824.0947
         0.0        -0.0         0.0         0.0       24.49          82     1514205824.0947
        2.99       -1.36       -0.76        3.38       24.49           5     1514205824.0947
        4.36       -1.98       -0.25        4.79       24.49          57     1514205824.0947
         3.5        -1.6       -0.75        3.92       24.49           4     1514205824.0947
        4.25       -1.94        0.41        4.69       24.49          38     1514205824.0947
        4.24       -1.93       -0.74        4.72       24.49           5     1514205824.0947
        3.89       -1.77        0.52        4.31       24.49           1     1514205824.0947
        4.21       -1.92       -0.57        4.66       24.49          30     1514205824.0947
        3.89       -1.77        0.68        4.33       24.49           1     1514205824.0947
        2.94       -1.34       -0.28        3.24       24.49          10     1514205824.0947
        3.86       -1.76        0.82        4.32       24.49           1     1514205824.0947
        2.72       -1.24       -0.16        2.99       24.49           1     1514205824.0947
        4.28       -1.95        1.08        4.82       24.49          48     1514205824.0947
        2.67       -1.22       -0.05        2.93       24.49           1     1514205824.0947
        4.28       -1.95        1.26        4.86       24.49          38     1514205824.0947
         2.6        -1.2       -0.77        2.96       24.89           8     1514205824.0947
        4.28       -1.99        0.08        4.72       24.89          13     1514205824.0947
        2.98       -1.38       -0.76        3.37       24.89           5     1514205824.0947
        4.28       -1.99       -0.25        4.73       24.89          43     1514205824.0947
         3.5       -1.62       -0.75        3.93       24.89           4     1514205824.0947
        4.16       -1.93         0.4         4.6       24.89          31     1514205824.0947
        4.25       -1.97       -0.74        4.74       24.89           7     1514205824.0947
        3.88        -1.8        0.52        4.31       24.89           1     1514205824.0947
        4.15       -1.93       -0.56        4.61       24.89          31     1514205824.0947
        3.92       -1.82        0.68        4.37       24.89           1     1514205824.0947
        2.94       -1.36       -0.28        3.25       24.89          10     1514205824.0947
         0.0        -0.0         0.0         0.0       24.89          23     1514205824.0947
         2.7       -1.25       -0.16        2.98       24.89           1     1514205824.0947
         0.0        -0.0         0.0         0.0       24.89          77     1514205824.0948
        2.67       -1.24       -0.05        2.94       24.89           1     1514205824.0948
        4.21       -1.96        1.24        4.81       24.89          45     1514205824.0948
        2.59       -1.22       -0.77        2.96       25.28           8     1514205824.0948
        4.21       -1.99        0.08        4.66       25.28          21     1514205824.0948
        2.97        -1.4       -0.76        3.37       25.28           5     1514205824.0948
        4.22       -1.99       -0.24        4.67       25.28          45     1514205824.0948
        3.49       -1.65       -0.75        3.93       25.28           4     1514205824.0948
         4.1       -1.94         0.4        4.55       25.28          33     1514205824.0948
        4.19       -1.98       -0.73        4.69       25.28           5     1514205824.0948
        3.44       -1.62        0.47        3.83       25.28           2     1514205824.0948
         4.1       -1.94       -0.56        4.57       25.28          29     1514205824.0948
        3.49       -1.65        0.61         3.9       25.28           1     1514205824.0948
        2.94       -1.39       -0.28        3.26       25.28          10     1514205824.0948
        3.39        -1.6        0.73        3.82       25.28           1     1514205824.0948
        2.69       -1.27       -0.16        2.98       25.28           1     1514205824.0948
         0.0        -0.0         0.0         0.0       25.28          38     1514205824.0948
        2.65       -1.25       -0.05        2.94       25.28           1     1514205824.0948
        4.16       -1.96        1.23        4.76       25.28          49     1514205824.0948
        2.58       -1.24       -0.77        2.96       25.68           8     1514205824.0948
         0.0        -0.0         0.0         0.0       25.68          86     1514205824.0948
        2.95       -1.42       -0.76        3.36       25.68           5     1514205824.0948
        4.16        -2.0       -0.24        4.62       25.68          42     1514205824.0948
        3.48       -1.68       -0.75        3.94       25.68           4     1514205824.0948
        4.04       -1.94        0.39         4.5       25.68          31     1514205824.0948
        4.14       -1.99       -0.73        4.65       25.68           5     1514205824.0948
        3.37       -1.62        0.46        3.76       25.68           7     1514205824.0948
        4.05       -1.95       -0.55        4.53       25.68          33     1514205824.0949
        3.38       -1.62        0.59        3.79       25.68           1     1514205824.0949
        2.94       -1.41       -0.29        3.27       25.68           9     1514205824.0949
        3.37       -1.62        0.73        3.81       25.68           1     1514205824.0949
        2.64       -1.27       -0.15        2.93       25.68           1     1514205824.0949
        3.39       -1.63        0.87        3.86       25.68           1     1514205824.0949
        2.63       -1.27       -0.05        2.92       25.68           1     1514205824.0949
         4.1       -1.97        1.22        4.71       25.68          45     1514205824.0949
        2.57       -1.26       -0.77        2.97       26.08           8     1514205824.0949
        4.11       -2.01        0.08        4.57       26.08          55     1514205824.0949
        2.94       -1.44       -0.76        3.36       26.08           5     1514205824.0949
        4.08        -2.0       -0.24        4.55       26.08          31     1514205824.0949
        3.48        -1.7       -0.75        3.95       26.08           4     1514205824.0949
        3.99       -1.95        0.39        4.45       26.08          31     1514205824.0949
        4.08        -2.0       -0.72         4.6       26.08           5     1514205824.0949
        3.31       -1.62        0.45        3.72       26.08          11     1514205824.0949
         0.0        -0.0        -0.0         0.0       26.08          95     1514205824.0949
        3.43       -1.68        0.61        3.87       26.08           1     1514205824.0949
        2.93       -1.44       -0.29        3.28       26.08           8     1514205824.0949
        3.35       -1.64        0.73         3.8       26.08           1     1514205824.0949
         2.6       -1.27       -0.15         2.9       26.08           1     1514205824.0949
        3.37       -1.65        0.87        3.85       26.08           1     1514205824.0949
        2.63       -1.29       -0.05        2.93       26.08           2     1514205824.0949
        4.05       -1.98        1.21        4.67       26.08          49     1514205824.0949
        2.57       -1.28       -0.77        2.97       26.48           8     1514205824.0949
        4.05       -2.02        0.08        4.52       26.48          38     1514205824.0949
        2.94       -1.46       -0.76        3.37       26.48           5     1514205824.0949
        4.02        -2.0       -0.24        4.49       26.48          23      1514205824.095
        3.46       -1.73       -0.75        3.94       26.48           4      1514205824.095
        3.94       -1.96        0.39        4.42       26.48          29      1514205824.095
         0.0        -0.0        -0.0         0.0       26.48          19      1514205824.095
        3.29       -1.64        0.45        3.71       26.48          11      1514205824.095
        3.93       -1.96       -0.54        4.43       26.48          32      1514205824.095
        3.33       -1.66        0.59        3.77       26.48           2      1514205824.095
        2.93       -1.46       -0.29        3.29       26.48           8      1514205824.095
        3.34       -1.66        0.72         3.8       26.48           1      1514205824.095
         2.6       -1.29       -0.15        2.91       26.48           2      1514205824.095
        3.34       -1.67        0.86        3.83       26.48           1      1514205824.095
        2.62       -1.31       -0.05        2.93       26.48           1      1514205824.095
        3.99       -1.99         1.2        4.62       26.48          52      1514205824.095
        2.55       -1.29       -0.77        2.96       26.88           8      1514205824.095
         4.0       -2.03        0.08        4.48       26.88          48      1514205824.095
        2.92       -1.48       -0.76        3.36       26.88           5      1514205824.095
         4.0       -2.03       -0.23        4.49       26.88          46      1514205824.095
        3.44       -1.75       -0.75        3.93       26.88           4      1514205824.095
        3.88       -1.97        0.38        4.36       26.88          33      1514205824.095
         4.0       -2.03       -0.71        4.54       26.88           1      1514205824.095
        3.25       -1.65        0.45        3.67       26.88          11      1514205824.095
        3.91       -1.98       -0.54        4.42       26.88          60      1514205824.095
        3.33       -1.69        0.59        3.78       26.88           2      1514205824.095
        2.91       -1.47       -0.29        3.27       26.88           8      1514205824.095
        3.33       -1.69        0.73         3.8       26.88           1      1514205824.095
        2.58       -1.31       -0.15         2.9       26.88           2      1514205824.095
        3.34       -1.69        0.87        3.85       26.88           1      1514205824.095
        2.59       -1.31       -0.05         2.9       26.88           1      1514205824.095
        3.93       -1.99        1.18        4.56       26.88          52      1514205824.095
        2.53       -1.31       -0.76        2.95       27.28           8     1514205824.0951
        3.93       -2.03        0.08        4.43       27.28          58     1514205824.0951
        2.94       -1.51       -0.76        3.39       27.28           5     1514205824.0951
        3.94       -2.03       -0.23        4.44       27.28          42     1514205824.0951
        3.22       -1.66        -0.7        3.69       27.28           1     1514205824.0951
        3.83       -1.97        0.38        4.32       27.28          33     1514205824.0951
        3.93       -2.02        -0.7        4.47       27.28           4     1514205824.0951
        3.22       -1.66        0.44        3.65       27.28          10     1514205824.0951
        3.83       -1.98       -0.53        4.35       27.28          29     1514205824.0951
        3.31       -1.71        0.59        3.78       27.28           2     1514205824.0951
         2.9       -1.49       -0.29        3.27       27.28           7     1514205824.0951
         3.3        -1.7        0.72        3.78       27.28           3     1514205824.0951
        2.58       -1.33       -0.15        2.91       27.28           2     1514205824.0951
        3.31       -1.71        0.86        3.82       27.28           1     1514205824.0951
        2.58       -1.33       -0.05        2.91       27.28           1     1514205824.0951
        3.87        -2.0        1.17        4.51       27.28          52     1514205824.0951
        2.53       -1.33       -0.77        2.96       27.68           8     1514205824.0951
        3.88       -2.03        0.08        4.38       27.68          60     1514205824.0951
        2.91       -1.53       -0.76        3.37       27.68           5     1514205824.0951
        3.89       -2.04       -0.23        4.39       27.68          43     1514205824.0951
        3.42       -1.79       -0.75        3.93       27.68           4     1514205824.0951
        3.78       -1.98        0.37        4.28       27.68          33     1514205824.0951
        3.86       -2.02       -0.69        4.41       27.68           4     1514205824.0951
        3.16       -1.66        0.44         3.6       27.68          10     1514205824.0951
        3.79       -1.99       -0.53        4.32       27.68          40     1514205824.0951
        3.29       -1.73        0.59        3.76       27.68           2     1514205824.0951
        2.88       -1.51       -0.28        3.27       27.68           8     1514205824.0951
        3.29       -1.73        0.72        3.79       27.68           3     1514205824.0951
        2.57       -1.35       -0.15         2.9       27.68           1     1514205824.0951
        3.31       -1.74        0.86        3.83       27.68           1     1514205824.0951
        2.65       -1.39       -0.05        2.99       27.68           4     1514205824.0951
        3.83       -2.01        1.16        4.48       27.68          47     1514205824.0951
        2.52       -1.35       -0.77        2.96       28.07           8     1514205824.0952
        3.83       -2.04        0.08        4.34       28.07          56     1514205824.0952
        2.88       -1.54       -0.75        3.35       28.07           5     1514205824.0952
        3.83       -2.04       -0.23        4.35       28.07          10     1514205824.0952
        3.42       -1.82       -0.75        3.95       28.07           4     1514205824.0952
        3.73       -1.99        0.37        4.24       28.07          33     1514205824.0952
        3.82       -2.04       -0.69        4.38       28.07           4     1514205824.0952
        3.13       -1.67        0.44        3.57       28.07           5     1514205824.0952
        3.73       -1.99       -0.52        4.26       28.07          34     1514205824.0952
        3.28       -1.75        0.59        3.76       28.07           2     1514205824.0952
        2.87       -1.53       -0.28        3.27       28.07           8     1514205824.0952
        3.27       -1.75        0.72        3.78       28.07           3     1514205824.0952
        2.52       -1.34       -0.15        2.86       28.07           2     1514205824.0952
        3.28       -1.75        0.86        3.81       28.07           1     1514205824.0952
        2.62        -1.4       -0.05        2.97       28.07           4     1514205824.0952
        3.79       -2.02        1.15        4.45       28.07          50     1514205824.0952
         2.5       -1.36       -0.76        2.95       28.47           2     1514205824.0952
        3.78       -2.05        0.08        4.31       28.47          56     1514205824.0952
        2.86       -1.55       -0.75        3.34       28.47           5     1514205824.0952
        3.32        -1.8        -0.2        3.79       28.47           2     1514205824.0952
        3.39       -1.84       -0.75        3.93       28.47           4     1514205824.0952
         0.0        -0.0         0.0         0.0       28.47          88     1514205824.0952
        3.76       -2.04       -0.68        4.34       28.47           4     1514205824.0952
        3.11       -1.69        0.43        3.57       28.47           3     1514205824.0952
        3.68       -1.99       -0.51        4.21       28.47          34     1514205824.0952
        3.25       -1.76        0.59        3.74       28.47           2     1514205824.0952
         0.0        -0.0        -0.0         0.0       28.47          46     1514205824.0952
        3.25       -1.77        0.72        3.77       28.47           3     1514205824.0952
         0.0        -0.0        -0.0         0.0       28.47         150     1514205824.0952
        3.26       -1.77        0.86        3.81       28.47           1     1514205824.0952
        2.56       -1.39       -0.05        2.92       28.47           4     1514205824.0953
        3.74       -2.03        1.14        4.41       28.47          52     1514205824.0953
        2.49       -1.37       -0.76        2.94       28.86           3     1514205824.0953
        3.73       -2.06        0.07        4.26       28.86          21     1514205824.0953
        2.53        -1.4       -0.67        2.97       28.86           4     1514205824.0953
        3.27        -1.8        -0.2        3.74       28.86           2     1514205824.0953
         3.4       -1.87       -0.75        3.95       28.86           4     1514205824.0953
        3.31       -1.82        0.33        3.79       28.86           3     1514205824.0953
        3.73       -2.06       -0.67        4.31       28.86           4     1514205824.0953
        3.11       -1.72        0.44        3.58       28.86           3     1514205824.0953
        3.63        -2.0       -0.51        4.17       28.86          33     1514205824.0953
        3.24       -1.78        0.59        3.74       28.86           2     1514205824.0953
        2.83       -1.56       -0.28        3.25       28.86           4     1514205824.0953
        3.24       -1.79        0.72        3.77       28.86           3     1514205824.0953
        3.74       -2.06       -0.22        4.28       28.86          60     1514205824.0953
        3.25       -1.79        0.86        3.81       28.86           1     1514205824.0953
        2.52       -1.39       -0.05        2.88       28.86           4     1514205824.0953
        3.64       -2.01        1.11         4.3       28.86          19     1514205824.0953
        2.49        -1.4       -0.77        2.96       29.26           8     1514205824.0953
        3.58       -2.01        0.07        4.11       29.26          13     1514205824.0953
        2.85        -1.6       -0.75        3.35       29.26           5     1514205824.0953
        3.24       -1.82       -0.19        3.72       29.26           2     1514205824.0953
         0.0        -0.0        -0.0         0.0       29.26          44     1514205824.0953
        3.26       -1.83        0.33        3.76       29.26           3     1514205824.0953
        3.67       -2.05       -0.67        4.26       29.26           4     1514205824.0953
        3.12       -1.75        0.44         3.6       29.26           3     1514205824.0953
         3.6       -2.02       -0.51        4.16       29.26          30     1514205824.0953
        3.23       -1.81        0.59        3.75       29.26           4     1514205824.0954
        2.81       -1.57       -0.28        3.23       29.26           8     1514205824.0954
        3.22        -1.8        0.72        3.76       29.26           3     1514205824.0954
        3.68       -2.06       -0.22        4.22       29.26          42     1514205824.0954
        3.22        -1.8        0.85        3.79       29.26           1     1514205824.0954
        2.49       -1.39       -0.05        2.85       29.26           4     1514205824.0954
        3.58       -2.01         1.1        4.25       29.26          19     1514205824.0954
        2.48       -1.41       -0.77        2.96       29.66           8     1514205824.0954
        3.63       -2.06        0.07        4.17       29.66          30     1514205824.0954
        2.85       -1.62       -0.76        3.36       29.66           5     1514205824.0954
        3.21       -1.83       -0.19        3.69       29.66           2     1514205824.0954
        3.36       -1.91       -0.75        3.93       29.66           4     1514205824.0954
        3.22       -1.83        0.32        3.72       29.66           2     1514205824.0954
         0.0        -0.0        -0.0         0.0       29.66          19     1514205824.0954
        3.08       -1.76        0.44        3.57       29.66           3     1514205824.0954
        3.56       -2.03        -0.5        4.13       29.66          28     1514205824.0954
        3.21       -1.83        0.59        3.74       29.66           4     1514205824.0954
         2.8       -1.59       -0.28        3.23       29.66           8     1514205824.0954
         3.2       -1.82        0.72        3.76       29.66           3     1514205824.0954
        3.63       -2.07       -0.22        4.19       29.66          48     1514205824.0954
        3.21       -1.83        0.85        3.79       29.66           1     1514205824.0954
        2.46        -1.4       -0.05        2.83       29.66           4     1514205824.0954
        3.53       -2.01        1.09        4.21       29.66          16     1514205824.0954
        2.48       -1.43       -0.77        2.96       30.05           7     1514205824.0954
        3.58       -2.07        0.07        4.14       30.05          26     1514205824.0954
        2.83       -1.64       -0.76        3.36       30.05           5     1514205824.0954
        3.14       -1.82       -0.19        3.63       30.05           2     1514205824.0954
        3.34       -1.93       -0.75        3.93       30.05           5     1514205824.0954
        3.19       -1.84        0.32         3.7       30.05           2     1514205824.0955
        3.57       -2.07       -0.65        4.18       30.05           5     1514205824.0955
        3.06       -1.77        0.43        3.56       30.05           3     1514205824.0955
         0.0        -0.0        -0.0         0.0       30.05          95     1514205824.0955
        3.19       -1.85        0.58        3.73       30.05           4     1514205824.0955
        2.77        -1.6       -0.28        3.21       30.05           7     1514205824.0955
        3.19       -1.85        0.72        3.76       30.05           3     1514205824.0955
        3.59       -2.08       -0.22        4.15       30.05          52     1514205824.0955
        3.18       -1.84        0.85        3.77       30.05           1     1514205824.0955
        2.42        -1.4       -0.05         2.8       30.05           5     1514205824.0955
         3.5       -2.02        1.08        4.18       30.05          29     1514205824.0955
        2.47       -1.45       -0.77        2.96       30.45           7     1514205824.0955
        3.54       -2.08        0.07        4.11       30.45          21     1514205824.0955
        2.82       -1.66       -0.76        3.36       30.45           5     1514205824.0955
        3.11       -1.83       -0.19        3.61       30.45           2     1514205824.0955
        3.32       -1.95       -0.75        3.93       30.45           5     1514205824.0955
        3.15       -1.85        0.32        3.67       30.45           2     1514205824.0955
        3.54       -2.08       -0.65        4.15       30.45          17     1514205824.0955
        3.03       -1.78        0.43        3.54       30.45           2     1514205824.0955
        3.46       -2.04       -0.49        4.05       30.45          23     1514205824.0955
        3.16       -1.86        0.58        3.72       30.45           4     1514205824.0955
        2.74       -1.61       -0.28        3.19       30.45           7     1514205824.0955
        3.16       -1.86        0.71        3.74       30.45           2     1514205824.0955
        3.53       -2.08       -0.21         4.1       30.45          47     1514205824.0955
        3.17       -1.86        0.85        3.77       30.45           1     1514205824.0955
        2.38        -1.4       -0.05        2.76       30.45           5     1514205824.0955
        3.45       -2.03        1.07        4.14       30.45          11     1514205824.0955
        2.45       -1.46       -0.76        2.95       30.85           7     1514205824.0956
         3.5       -2.09        0.07        4.07       30.85          40     1514205824.0956
        2.81       -1.68       -0.76        3.36       30.85           5     1514205824.0956
        3.08       -1.84       -0.19         3.6       30.85           2     1514205824.0956
         3.3       -1.97       -0.75        3.91       30.85           5     1514205824.0956
        3.12       -1.86        0.32        3.64       30.85           2     1514205824.0956
        3.47       -2.07       -0.64        4.09       30.85           9     1514205824.0956
        2.99       -1.78        0.43        3.51       30.85           2     1514205824.0956
        3.45       -2.06       -0.49        4.04       30.85          50     1514205824.0956
        3.15       -1.88        0.58        3.71       30.85           4     1514205824.0956
         2.7       -1.61       -0.28        3.16       30.85           7     1514205824.0956
        3.15       -1.88        0.71        3.73       30.85           2     1514205824.0956
        3.49       -2.09       -0.21        4.07       30.85          48     1514205824.0956
        3.13       -1.87        0.84        3.75       30.85           1     1514205824.0956
        2.33       -1.39       -0.05        2.72       30.85           4     1514205824.0956
        3.41       -2.04        1.06        4.11       30.85          17     1514205824.0956
         0.0        -0.0        -0.0         0.0       31.25          46     1514205824.0956
         0.0        -0.0         0.0         0.0       31.25          92     1514205824.0956
         2.8        -1.7       -0.76        3.36       31.25           5     1514205824.0956
        3.04       -1.85       -0.19        3.56       31.25           2     1514205824.0956
        3.28       -1.99       -0.75        3.91       31.25           5     1514205824.0956
        3.07       -1.86        0.31         3.6       31.25           2     1514205824.0956
         0.0        -0.0        -0.0         0.0       31.25          39     1514205824.0956
        2.94       -1.78        0.42        3.46       31.25           2     1514205824.0956
        3.37       -2.04       -0.48        3.97       31.25          26     1514205824.0956
        3.14       -1.91        0.58        3.72       31.25           4     1514205824.0956
        2.68       -1.62       -0.27        3.14       31.25           6     1514205824.0956
        3.13        -1.9        0.71        3.73       31.25           2     1514205824.0956
         0.0        -0.0        -0.0         0.0       31.25          85     1514205824.0956
        3.14        -1.9        0.85        3.77       31.25           1     1514205824.0956
        2.28       -1.38       -0.05        2.66       31.25           2     1514205824.0956
        3.35       -2.04        1.05        4.06       31.25          14     1514205824.0956
        2.42       -1.49       -0.76        2.94       31.65           4     1514205824.0957
         3.4       -2.09        0.07        3.99       31.65           4     1514205824.0957
         0.0        -0.0        -0.0         0.0       31.65          15     1514205824.0957
        3.01       -1.86       -0.19        3.55       31.65           2     1514205824.0957
        2.35       -1.45       -0.54        2.82       31.65           1     1514205824.0957
        3.05       -1.88        0.31        3.59       31.65           2     1514205824.0957
        3.26       -2.01       -0.61        3.88       31.65           2     1514205824.0957
        2.88       -1.78        0.42        3.41       31.65           2     1514205824.0957
        3.33       -2.05       -0.48        3.94       31.65          28     1514205824.0957
        3.12       -1.92        0.58        3.71       31.65           4     1514205824.0957
        2.65       -1.63       -0.27        3.12       31.65           6     1514205824.0957
        3.11       -1.92        0.71        3.72       31.65           2     1514205824.0957
         0.0        -0.0        -0.0         0.0       31.65          85     1514205824.0957
         3.1       -1.91        0.84        3.74       31.65           1     1514205824.0957
        2.21       -1.36       -0.05         2.6       31.65           1     1514205824.0957
        3.32       -2.04        1.04        4.03       31.65          24     1514205824.0957
        2.42       -1.52       -0.77        2.96       32.05           7     1514205824.0957
         0.0        -0.0         0.0         0.0       32.05          82     1514205824.0957
        2.57       -1.61        -0.7        3.11       32.05           2     1514205824.0957
        2.97       -1.86       -0.18        3.51       32.05           2     1514205824.0957
        2.33       -1.46       -0.54        2.81       32.05           2     1514205824.0957
        2.98       -1.86        0.31        3.53       32.05           2     1514205824.0957
        3.22       -2.01        -0.6        3.84       32.05           2     1514205824.0957
        2.86       -1.79        0.41         3.4       32.05           2     1514205824.0957
         0.0        -0.0        -0.0         0.0       32.05          95     1514205824.0957
         3.2        -2.0         0.6        3.82       32.05           4     1514205824.0957
         0.0        -0.0        -0.0         0.0       32.05          46     1514205824.0957
        3.23       -2.02        0.74        3.88       32.05           1     1514205824.0957
        2.24        -1.4       -0.14        2.64       32.05           1     1514205824.0957
        3.22       -2.02        0.88         3.9       32.05           1     1514205824.0957
        2.19       -1.37       -0.04        2.58       32.05           1     1514205824.0957
        3.28       -2.05        1.04         4.0       32.05          22     1514205824.0958
        2.41       -1.53       -0.77        2.96       32.44           8     1514205824.0958
        3.32       -2.11        0.07        3.94       32.44          38     1514205824.0958
        2.75       -1.75       -0.75        3.34       32.44           5     1514205824.0958
        2.92       -1.86       -0.18        3.47       32.44           2     1514205824.0958
         0.0        -0.0        -0.0         0.0       32.44         230     1514205824.0958
        2.96       -1.88        0.31        3.52       32.44           2     1514205824.0958
        3.18       -2.02        -0.6        3.81       32.44           1     1514205824.0958
        2.83        -1.8        0.41        3.38       32.44           2     1514205824.0958
        3.24       -2.06       -0.47        3.87       32.44          15     1514205824.0958
        3.25       -2.07        0.61         3.9       32.44          23     1514205824.0958
         0.0        -0.0        -0.0         0.0       32.44          46     1514205824.0958
         0.0        -0.0         0.0         0.0       32.44          84     1514205824.0958
        2.18       -1.39       -0.14        2.59       32.44           1     1514205824.0958
         0.0        -0.0         0.0         0.0       32.44         182     1514205824.0958
        2.14       -1.36       -0.04        2.53       32.44           1     1514205824.0958
        3.23       -2.06        1.03        3.97       32.44          12     1514205824.0958
        2.39       -1.55       -0.76        2.95       32.84           7     1514205824.0958
        3.28       -2.12        0.07        3.91       32.84           6     1514205824.0958
        2.74       -1.77       -0.75        3.35       32.84           5     1514205824.0958
        2.89       -1.87       -0.18        3.45       32.84           2     1514205824.0958
        3.22       -2.08       -0.75        3.91       32.84           5     1514205824.0958
        2.91       -1.88         0.3        3.48       32.84           2     1514205824.0958
        2.31       -1.49       -0.44        2.78       32.84           3     1514205824.0958
        2.82       -1.82        0.41        3.38       32.84           2     1514205824.0958
        3.24       -2.09       -0.47        3.88       32.84          46     1514205824.0958
        3.23       -2.09        0.61        3.89       32.84          27     1514205824.0958
        2.17        -1.4       -0.23        2.59       32.84           2     1514205824.0959
        3.25        -2.1        0.75        3.94       32.84          24     1514205824.0959
        2.12       -1.37       -0.13        2.52       32.84           1     1514205824.0959
         0.0        -0.0         0.0         0.0       32.84         128     1514205824.0959
        2.11       -1.36       -0.04        2.51       32.84           1     1514205824.0959
        3.19       -2.06        1.02        3.93       32.84          13     1514205824.0959
        2.38       -1.56       -0.76        2.94       33.23           7     1514205824.0959
        3.24       -2.12        0.07        3.87       33.23           9     1514205824.0959
        2.74       -1.79       -0.76        3.36       33.23           5     1514205824.0959
         0.0        -0.0        -0.0         0.0       33.23          30     1514205824.0959
         0.0        -0.0        -0.0         0.0       33.23          44     1514205824.0959
        2.89       -1.89         0.3        3.47       33.23           3     1514205824.0959
        3.12       -2.04       -0.59        3.77       33.23           7     1514205824.0959
        2.78       -1.82        0.41        3.35       33.23           2     1514205824.0959
         0.0        -0.0        -0.0         0.0       33.23          47     1514205824.0959
         3.2        -2.1        0.61        3.88       33.23          23     1514205824.0959
        2.13       -1.39       -0.22        2.55       33.23           2     1514205824.0959
        3.21        -2.1        0.75        3.91       33.23          39     1514205824.0959
        2.08       -1.36       -0.13        2.49       33.23           2     1514205824.0959
        3.23       -2.12        0.89        3.96       33.23          61     1514205824.0959
        2.07       -1.36       -0.04        2.48       33.23           1     1514205824.0959
        3.15       -2.06        1.01         3.9       33.23          12     1514205824.0959
        2.38       -1.58       -0.77        2.96       33.63           8     1514205824.0959
        3.19       -2.12        0.07        3.84       33.63          20     1514205824.0959
        2.69       -1.79       -0.75        3.31       33.63           2     1514205824.0959
         0.0        -0.0        -0.0         0.0       33.63         112     1514205824.0959
        3.17       -2.11       -0.74        3.88       33.63           5     1514205824.0959
        3.09       -2.06        0.33        3.73       33.63           9     1514205824.0959
        3.11       -2.07       -0.59        3.78       33.63          16      1514205824.096
        2.85        -1.9        0.42        3.45       33.63           2      1514205824.096
         2.3       -1.53       -0.34        2.79       33.63           4      1514205824.096
        3.17       -2.11         0.6        3.86       33.63          37      1514205824.096
        2.12       -1.41       -0.22        2.55       33.63           2      1514205824.096
        3.18       -2.12        0.74        3.89       33.63          58      1514205824.096
        2.07       -1.38       -0.13        2.49       33.63           1      1514205824.096
        3.19       -2.12        0.88        3.93       33.63          57      1514205824.096
        2.02       -1.35       -0.04        2.43       33.63           1      1514205824.096
        3.12       -2.07         1.0        3.87       33.63          12      1514205824.096
