         0.0         0.0        -0.0         0.0      352.94           4             826.346
        2.42         0.3        0.04        2.44      352.94          11             826.346
         0.0         0.0        -0.0         0.0      352.94           3             826.346
        1.65         0.2       -0.09        1.66      352.94          58             826.346
        2.01        0.25       -0.39        2.07      352.94           2             826.346
        1.76        0.22        0.16        1.78      352.94          37             826.346
        2.04        0.25       -0.33        2.08      352.94          14             826.346
        2.38        0.29        0.29        2.41      352.94          34             826.346
        2.03        0.25       -0.25        2.06      352.94           4             826.346
        2.38        0.29        0.38        2.43      352.94          43             826.346
        2.01        0.25       -0.18        2.03      352.94          56             826.346
         2.4         0.3        0.47        2.46      352.94          46             826.346
        2.37        0.29       -0.13         2.4      352.94           9             826.346
        2.38        0.29        0.55        2.46      352.94          46             826.346
        2.35        0.29       -0.04        2.36      352.94          17             826.346
        6.02        0.75        1.63        6.28      352.94          52             826.346
         0.0         0.0        -0.0         0.0      353.14           4             826.346
        2.37        0.29        0.04        2.39      353.14          25             826.346
         0.0         0.0        -0.0         0.0      353.14           3             826.346
        1.66         0.2       -0.09        1.68      353.14          52             826.346
         0.0         0.0        -0.0         0.0      353.14           2             826.346
        1.78        0.21        0.16         1.8      353.14          47             826.346
        2.03        0.24       -0.32        2.07      353.14          19             826.346
        2.38        0.29        0.29        2.42      353.14          34             826.346
         1.8        0.22       -0.22        1.82      353.14           2             826.346
        2.38        0.29        0.38        2.43      353.14          41             826.346
        2.03        0.24       -0.18        2.05      353.14          23             826.346
        2.41        0.29        0.47        2.47      353.14          46             826.346
        2.39        0.29       -0.13        2.41      353.14           9             826.346
        2.38        0.29        0.55        2.46      353.14          46             826.346
        2.36        0.28       -0.04        2.38      353.14          23             826.346
        5.97        0.72        1.61        6.22      353.14          38             826.346
         0.0         0.0        -0.0         0.0      353.34           4             826.346
        2.41        0.28        0.04        2.42      353.34          43             826.346
         0.0         0.0        -0.0         0.0      353.34           3             826.346
        1.67         0.2       -0.09        1.69      353.34          52             826.346
         0.0         0.0        -0.0         0.0      353.34           2             826.346
        1.75         0.2        0.15        1.77      353.34          72             826.346
        1.82        0.21       -0.29        1.85      353.34           5             826.346
         2.4        0.28         0.3        2.44      353.34          35             826.346
        2.06        0.24       -0.25        2.09      353.34           4             826.346
        2.38        0.28        0.38        2.43      353.34          43             826.346
         0.0         0.0        -0.0         0.0      353.34           3             826.346
        2.41        0.28        0.47        2.47      353.34          46             826.346
        2.37        0.28       -0.12        2.39      353.34          10             826.346
        2.39        0.28        0.55        2.47      353.34          43             826.346
         2.4        0.28       -0.04        2.42      353.34          52             826.346
        5.91        0.69        1.59        6.16      353.34          47             826.346
         0.0         0.0        -0.0         0.0      353.54           4             826.346
        2.42        0.27        0.04        2.43      353.54          58             826.346
         0.0         0.0        -0.0         0.0      353.54           3             826.346
        1.67        0.19       -0.09        1.68      353.54          55             826.346
         0.0         0.0        -0.0         0.0      353.54           2             826.346
        1.75         0.2        0.15        1.76      353.54          63             826.346
        1.98        0.22       -0.32        2.02      353.54          23             826.346
        2.41        0.27         0.3        2.45      353.54          35             826.346
        2.04        0.23       -0.25        2.07      353.54          21             826.346
        2.39        0.27        0.38        2.43      353.54          43             826.346
        2.02        0.23       -0.18        2.04      353.54          16             826.346
         2.4        0.27        0.47        2.46      353.54          46             826.346
        2.39        0.27       -0.13         2.4      353.54           2             826.346
        2.39        0.27        0.56        2.47      353.54          46             826.346
        2.37        0.27       -0.04        2.39      353.54          39             826.346
        5.83        0.66        1.57        6.08      353.54          45             826.346
         0.0         0.0        -0.0         0.0      353.74           4             826.346
        2.39        0.26        0.04         2.4      353.74          54             826.346
         0.0         0.0        -0.0         0.0      353.74           3             826.346
        1.68        0.18       -0.09        1.69      353.74          52             826.346
         0.0         0.0        -0.0         0.0      353.74           2             826.346
        1.75        0.19        0.15        1.76      353.74          51             826.346
        2.01        0.22       -0.32        2.05      353.74          25             826.346
        2.39        0.26         0.3        2.42      353.74          34             826.346
         0.0         0.0        -0.0         0.0      353.74         100             826.346
        2.41        0.26        0.38        2.45      353.74          43             826.346
        2.06        0.23       -0.18        2.08      353.74          42             826.346
        2.41        0.26        0.47        2.47      353.74          46             826.346
        2.33        0.26       -0.12        2.34      353.74           2             826.346
         2.4        0.26        0.56        2.48      353.74          46             826.346
        2.39        0.26       -0.04         2.4      353.74          52             826.346
        5.77        0.63        1.56        6.01      353.74          43             826.346
         0.0         0.0        -0.0         0.0      353.94           4             826.346
         2.4        0.25        0.04        2.41      353.94          52             826.346
         0.0         0.0        -0.0         0.0      353.94           3             826.346
        1.67        0.18       -0.09        1.68      353.94          55             826.346
         0.0         0.0        -0.0         0.0      353.94           2             826.346
        1.77        0.19        0.16        1.78      353.94          39             826.346
        2.03        0.22       -0.32        2.07      353.94          24             826.346
         2.4        0.25         0.3        2.43      353.94          33             826.346
        2.05        0.22       -0.25        2.08      353.94          49             826.346
        2.41        0.26        0.38        2.45      353.94          45             826.346
        2.07        0.22       -0.18        2.09      353.94           8             826.346
        2.41        0.26        0.47        2.47      353.94          46             826.346
        2.32        0.25       -0.12        2.34      353.94           2             826.346
         2.4        0.25        0.56        2.47      353.94          46             826.346
        2.37        0.25       -0.04        2.39      353.94          33             826.346
        5.74        0.61        1.55        5.97      353.94          47             826.346
         0.0         0.0        -0.0         0.0      354.13           4             826.346
        2.41        0.25        0.04        2.42      354.13          49             826.346
         0.0         0.0        -0.0         0.0      354.13           3             826.346
        1.67        0.17       -0.09        1.69      354.13          52             826.346
         0.0         0.0        -0.0         0.0      354.13           2             826.346
        1.76        0.18        0.15        1.78      354.13          14             826.346
        2.04        0.21       -0.32        2.08      354.13          24             826.346
        2.42        0.25         0.3        2.45      354.13          42             826.346
        2.06        0.21       -0.25        2.09      354.13          47             826.346
         2.4        0.25        0.38        2.44      354.13          43             826.346
        2.06        0.21       -0.18        2.08      354.13          17             826.346
        2.43        0.25        0.47        2.49      354.13          46             826.346
        2.33        0.24       -0.12        2.35      354.13           3             826.346
        2.41        0.25        0.56        2.48      354.13          49             826.346
        2.37        0.24       -0.04        2.38      354.13          33             826.346
        5.68        0.58        1.53        5.91      354.13          45             826.346
         0.0         0.0        -0.0         0.0      354.34           4             826.346
        2.42        0.24        0.04        2.43      354.34          52             826.346
         0.0         0.0        -0.0         0.0      354.34           3             826.347
        1.68        0.17       -0.09        1.69      354.34          55             826.347
         0.0         0.0        -0.0         0.0      354.34           2             826.347
        1.84        0.18        0.16        1.86      354.34          17             826.347
        2.05         0.2       -0.33        2.09      354.34          23             826.347
        2.42        0.24         0.3        2.45      354.34          38             826.347
        2.07        0.21       -0.26         2.1      354.34          47             826.347
        2.41        0.24        0.38        2.45      354.34          43             826.347
        2.05         0.2       -0.18        2.06      354.34          23             826.347
        2.43        0.24        0.47        2.49      354.34          46             826.347
        2.34        0.23       -0.12        2.35      354.34           3             826.347
        2.41        0.24        0.56        2.49      354.34          49             826.347
        2.37        0.24       -0.04        2.39      354.34          33             826.347
        5.61        0.56        1.51        5.84      354.34          42             826.347
         0.0         0.0        -0.0         0.0      354.54           4             826.347
        2.42        0.23        0.04        2.43      354.54          57             826.347
         0.0         0.0        -0.0         0.0      354.54           3             826.347
        1.69        0.16       -0.09         1.7      354.54          55             826.347
         0.0         0.0        -0.0         0.0      354.54           2             826.347
        1.92        0.18        0.17        1.94      354.54          22             826.347
        2.04         0.2       -0.32        2.08      354.54          24             826.347
        2.42        0.23         0.3        2.45      354.54          38             826.347
        2.08         0.2       -0.26         2.1      354.54          44             826.347
        2.42        0.23        0.38        2.46      354.54          43             826.347
        2.06         0.2       -0.18        2.08      354.54          15             826.347
        2.42        0.23        0.47        2.48      354.54          46             826.347
        2.35        0.22       -0.12        2.36      354.54           4             826.347
        2.41        0.23        0.56        2.49      354.54          49             826.347
        2.38        0.23       -0.04        2.39      354.54          35             826.347
        5.56        0.53         1.5        5.78      354.54          49             826.347
         0.0         0.0        -0.0         0.0      354.74           4             826.347
        2.41        0.22        0.04        2.42      354.74          52             826.347
         0.0         0.0        -0.0         0.0      354.74           3             826.347
         1.7        0.16       -0.09        1.71      354.74          55             826.347
         0.0         0.0        -0.0         0.0      354.74           2             826.347
        1.92        0.18        0.17        1.93      354.74          27             826.347
        2.05        0.19       -0.33        2.08      354.74          24             826.347
        2.43        0.22         0.3        2.45      354.74          38             826.347
        2.08        0.19       -0.26         2.1      354.74          44             826.347
        2.43        0.22        0.39        2.47      354.74          43             826.347
        2.07        0.19       -0.18        2.08      354.74          46             826.347
        2.43        0.22        0.47        2.48      354.74          46             826.347
        2.38        0.22       -0.13        2.39      354.74           6             826.347
        2.43        0.22        0.56         2.5      354.74          46             826.347
        2.39        0.22       -0.04         2.4      354.74          33             826.347
        5.52        0.51        1.49        5.74      354.74          50             826.347
         0.0         0.0        -0.0         0.0      354.94           4             826.347
        2.42        0.21        0.04        2.43      354.94          52             826.347
         0.0         0.0        -0.0         0.0      354.94           3             826.347
        1.68        0.15       -0.09        1.69      354.94          55             826.347
         0.0         0.0        -0.0         0.0      354.94           2             826.347
        1.91        0.17        0.17        1.93      354.94          25             826.347
        2.05        0.18       -0.33        2.09      354.94          38             826.347
        2.43        0.21         0.3        2.45      354.94          35             826.347
        2.07        0.18       -0.26         2.1      354.94          47             826.347
        2.43        0.22        0.39        2.47      354.94          43             826.347
        2.07        0.18       -0.18        2.09      354.94          15             826.347
        2.43        0.22        0.47        2.49      354.94          46             826.347
        2.39        0.21       -0.13        2.41      354.94          10             826.347
        2.42        0.21        0.56        2.49      354.94          49             826.347
        2.39        0.21       -0.04         2.4      354.94          35             826.347
        5.47        0.48        1.47        5.68      354.94          49             826.347
         0.0         0.0        -0.0         0.0      355.13           4             826.347
        2.43        0.21        0.04        2.44      355.13          52             826.347
         0.0         0.0        -0.0         0.0      355.13           3             826.347
        1.69        0.14       -0.09        1.69      355.13          55             826.347
         0.0         0.0        -0.0         0.0      355.13           2             826.347
        1.78        0.15        0.16         1.8      355.13          17             826.347
        2.05        0.17       -0.33        2.09      355.13          42             826.347
        2.44        0.21         0.3        2.47      355.13          42             826.347
        2.08        0.18       -0.26         2.1      355.13          47             826.347
        2.43        0.21        0.39        2.47      355.13          45             826.347
        2.07        0.18       -0.18        2.08      355.13          23             826.347
        2.45        0.21        0.48         2.5      355.13          49             826.347
        2.41        0.21       -0.13        2.42      355.13          14             826.347
        2.43        0.21        0.56         2.5      355.13          43             826.347
        2.39         0.2       -0.04         2.4      355.13          33             826.347
        5.41        0.46        1.45        5.62      355.13          46             826.347
         0.0         0.0        -0.0         0.0      355.33           4             826.347
        2.44         0.2        0.04        2.44      355.33          52             826.347
         0.0         0.0        -0.0         0.0      355.33           3             826.347
        1.69        0.14       -0.09         1.7      355.33          55             826.347
         0.0         0.0        -0.0         0.0      355.33           2             826.347
        1.77        0.14        0.16        1.78      355.33          34             826.347
        2.07        0.17       -0.33         2.1      355.33          40             826.347
        2.44         0.2         0.3        2.47      355.33          42             826.347
        2.09        0.17       -0.26        2.11      355.33          42             826.347
        2.43         0.2        0.39        2.47      355.33          41             826.347
        2.08        0.17       -0.18        2.09      355.33          14             826.347
        2.45         0.2        0.48         2.5      355.33          43             826.347
        2.41         0.2       -0.13        2.42      355.33          15             826.347
        2.43         0.2        0.56         2.5      355.33          46             826.347
        2.39         0.2       -0.04         2.4      355.33          35             826.347
        5.37        0.44        1.44        5.57      355.33          56             826.347
         0.0         0.0        -0.0         0.0      355.53           4             826.347
        2.44        0.19        0.04        2.44      355.53          47             826.347
         0.0         0.0        -0.0         0.0      355.53           3             826.347
         1.7        0.13       -0.09        1.71      355.53          55             826.347
         0.0         0.0        -0.0         0.0      355.53           2             826.347
        1.76        0.14        0.15        1.77      355.53          44             826.347
        2.06        0.16       -0.33        2.09      355.53          37             826.347
        2.45        0.19         0.3        2.48      355.53          38             826.347
         2.1        0.16       -0.26        2.12      355.53          42             826.347
        2.44        0.19        0.39        2.48      355.53          45             826.347
        2.07        0.16       -0.18        2.08      355.53          18             826.347
        2.44        0.19        0.48         2.5      355.53          49             826.347
        2.41        0.19       -0.13        2.42      355.53          20             826.347
        2.44        0.19        0.56        2.51      355.53          46             826.347
         2.4        0.19       -0.04        2.41      355.53          35             826.347
        5.33        0.42        1.43        5.53      355.53          56             826.347
         0.0         0.0        -0.0         0.0      355.73           4             826.347
        2.43        0.18        0.04        2.44      355.73          54             826.347
         0.0         0.0        -0.0         0.0      355.73           3             826.347
        1.71        0.13       -0.09        1.71      355.73          55             826.347
         0.0         0.0        -0.0         0.0      355.73           2             826.347
        1.76        0.13        0.15        1.77      355.73          51             826.347
        2.03        0.15       -0.32        2.07      355.73          37             826.347
        2.45        0.18         0.3        2.47      355.73          38             826.347
        2.08        0.16       -0.26         2.1      355.73          37             826.347
        2.45        0.18        0.39        2.49      355.73          41             826.347
        2.06        0.15       -0.18        2.07      355.73          16             826.347
        2.45        0.18        0.48         2.5      355.73          43             826.347
         2.4        0.18       -0.13        2.41      355.73          21             826.347
        2.44        0.18        0.57        2.51      355.73          46             826.347
         2.4        0.18       -0.04        2.41      355.73          35             826.347
        5.26        0.39        1.41        5.46      355.73          54             826.347
         0.0         0.0        -0.0         0.0      355.93           4             826.347
        2.45        0.17        0.04        2.45      355.93          52             826.347
         0.0         0.0        -0.0         0.0      355.93           3             826.347
         1.7        0.12       -0.09         1.7      355.93          55             826.347
         0.0         0.0        -0.0         0.0      355.93           2             826.347
        1.76        0.13        0.15        1.77      355.93          48             826.347
        2.01        0.14       -0.32        2.04      355.93          22             826.347
        2.45        0.17         0.3        2.47      355.93          42             826.347
        1.97        0.14       -0.24        1.99      355.93          21             826.347
        2.45        0.17        0.39        2.49      355.93          45             826.347
         2.0        0.14       -0.18        2.01      355.93          23             826.347
        2.46        0.17        0.48        2.51      355.93          43             826.347
        2.29        0.16       -0.12         2.3      355.93           8             826.347
        2.43        0.17        0.56         2.5      355.93          46             826.347
        2.41        0.17       -0.04        2.41      355.93          31             826.347
        5.22        0.37         1.4        5.41      355.93          48             826.347
         0.0         0.0        -0.0         0.0      356.13           4             826.347
        2.45        0.17        0.04        2.46      356.13          54             826.347
         0.0         0.0        -0.0         0.0      356.13           3             826.347
         1.7        0.12       -0.09        1.71      356.13          55             826.347
         0.0         0.0        -0.0         0.0      356.13           2             826.347
        1.78        0.12        0.16        1.79      356.13          39             826.347
        1.97        0.13       -0.31         2.0      356.13          28             826.347
        2.46        0.17         0.3        2.48      356.13          38             826.347
        1.95        0.13       -0.24        1.97      356.13          37             826.347
        2.44        0.17        0.39        2.48      356.13          45             826.347
        1.97        0.13       -0.17        1.98      356.13          26             826.347
        2.45        0.17        0.48         2.5      356.13          33             826.347
        1.99        0.13        -0.1         2.0      356.13          16             826.347
        2.44        0.17        0.57        2.51      356.13          36             826.347
        2.23        0.15       -0.04        2.24      356.13           8             826.347
        5.18        0.35        1.39        5.38      356.13          54             826.347
         0.0         0.0        -0.0         0.0      356.32           4             826.347
        2.47        0.16        0.04        2.47      356.32          54             826.347
         0.0         0.0        -0.0         0.0      356.32           3             826.347
        1.71        0.11       -0.09        1.72      356.32          52             826.347
         0.0         0.0        -0.0         0.0      356.32           2             826.347
        1.76        0.11        0.15        1.77      356.32          22             826.347
        1.96        0.13       -0.31        1.99      356.32          32             826.347
        2.46        0.16         0.3        2.49      356.32          38             826.347
        1.96        0.13       -0.24        1.98      356.32          37             826.347
        2.45        0.16        0.39        2.49      356.32          41             826.347
        1.96        0.13       -0.17        1.97      356.32          41             826.347
         0.0         0.0         0.0         0.0      356.32           2             826.347
        1.97        0.13        -0.1        1.98      356.32          20             826.347
        2.45        0.16        0.57        2.52      356.32          14             826.347
        2.03        0.13       -0.04        2.04      356.32          42             826.347
        5.14        0.33        1.38        5.33      356.32          62             826.347
         0.0         0.0        -0.0         0.0      356.52           4             826.347
        2.46        0.15        0.04        2.47      356.52          57             826.347
         0.0         0.0        -0.0         0.0      356.52           3             826.347
        1.72         0.1       -0.09        1.72      356.52          52             826.347
         0.0         0.0        -0.0         0.0      356.52           2             826.347
        1.77        0.11        0.15        1.78      356.52          14             826.347
        1.95        0.12       -0.31        1.98      356.52          30             826.347
        2.47        0.15         0.3        2.49      356.52          35             826.347
        1.96        0.12       -0.24        1.97      356.52          37             826.347
         0.0         0.0         0.0         0.0      356.52           6             826.347
        1.96        0.12       -0.17        1.98      356.52          38             826.347
        2.08        0.13        0.41        2.12      356.52           0             826.347
        1.97        0.12        -0.1        1.98      356.52          28             826.347
        2.45        0.15        0.57        2.52      356.52          13             826.347
        1.99        0.12       -0.03        1.99      356.52          21             826.347
        5.09        0.31        1.37        5.28      356.52           8             826.347
         0.0         0.0        -0.0         0.0      356.73           4             826.347
        2.46        0.14        0.04        2.46      356.73          54             826.347
         0.0         0.0        -0.0         0.0      356.73           3             826.347
        1.72         0.1       -0.09        1.73      356.73          49             826.347
         0.0         0.0        -0.0         0.0      356.73           2             826.347
        1.78         0.1        0.16        1.79      356.73          16             826.347
        1.95        0.11       -0.31        1.97      356.73          32             826.347
        2.45        0.14         0.3        2.48      356.73          26             826.347
        1.95        0.11       -0.24        1.97      356.73          35             826.347
        2.31        0.13        0.37        2.34      356.73           0             826.347
        1.95        0.11       -0.17        1.96      356.73          40             826.347
        2.07        0.12         0.4        2.11      356.73           1             826.347
        1.96        0.11        -0.1        1.96      356.73          36             826.347
        2.47        0.14        0.57        2.53      356.73          16             826.347
        1.98        0.11       -0.03        1.99      356.73          22             826.347
        4.92        0.28        1.32         5.1      356.73           2             826.347
         0.0         0.0        -0.0         0.0      356.93           4             826.347
        2.46        0.13        0.04        2.46      356.93          54             826.347
         0.0         0.0        -0.0         0.0      356.93           3             826.347
        1.71        0.09       -0.09        1.71      356.93          55             826.347
         0.0         0.0        -0.0         0.0      356.93           2             826.347
        1.82         0.1        0.16        1.83      356.93          14             826.347
        1.94         0.1       -0.31        1.97      356.93          34             826.347
         0.0         0.0         0.0         0.0      356.93           2             826.347
        1.94         0.1       -0.24        1.95      356.93          37             826.347
        2.04        0.11        0.32        2.06      356.93           0             826.347
        1.96         0.1       -0.17        1.97      356.93          40             826.347
        2.06        0.11         0.4         2.1      356.93           1             826.347
        1.96         0.1        -0.1        1.96      356.93          32             826.347
        2.45        0.13        0.57        2.52      356.93          26             826.347
        1.97        0.11       -0.03        1.97      356.93          25             826.347
        7.76        0.42        2.08        8.04      356.93           3             826.347
         0.0         0.0        -0.0         0.0      357.13           4             826.347
        2.48        0.12        0.04        2.48      357.13          54             826.347
         0.0         0.0        -0.0         0.0      357.13           3             826.347
        1.72        0.09       -0.09        1.72      357.13          55             826.347
         0.0         0.0        -0.0         0.0      357.13           2             826.347
        1.85        0.09        0.16        1.86      357.13           7             826.347
        1.96         0.1       -0.31        1.99      357.13          37             826.347
        2.01         0.1        0.25        2.03      357.13           0             826.347
        1.93         0.1       -0.24        1.95      357.13          39             826.347
        2.04         0.1        0.32        2.07      357.13           1             826.347
        1.95         0.1       -0.17        1.96      357.13          40             826.347
        2.09         0.1        0.41        2.13      357.13           1             826.347
        1.96         0.1        -0.1        1.97      357.13          30             826.347
        2.45        0.12        0.57        2.52      357.13          23             826.347
        1.97         0.1       -0.03        1.97      357.13          22             826.347
        7.76        0.39        2.08        8.05      357.13           1             826.347
         0.0         0.0        -0.0         0.0      357.33           4             826.347
        2.48        0.12        0.04        2.48      357.33          52             826.347
         0.0         0.0        -0.0         0.0      357.33           3             826.347
        1.73        0.08       -0.09        1.73      357.33          52             826.347
         0.0         0.0        -0.0         0.0      357.33           2             826.347
        1.83        0.09        0.16        1.84      357.33           7             826.347
        1.96        0.09       -0.31        1.99      357.33          37             826.347
        2.02        0.09        0.25        2.04      357.33           0             826.347
        1.95        0.09       -0.24        1.97      357.33          44             826.347
        2.06         0.1        0.33        2.09      357.33           1             826.347
        1.95        0.09       -0.17        1.96      357.33          42             826.347
        2.09         0.1        0.41        2.14      357.33           1             826.347
        1.97        0.09        -0.1        1.97      357.33          30             826.347
        2.46        0.11        0.57        2.53      357.33          27             826.347
        1.96        0.09       -0.03        1.97      357.33          19             826.347
        4.73        0.22        1.27        4.91      357.33           2             826.347
         0.0         0.0        -0.0         0.0      357.53           4             826.347
        2.48        0.11        0.04        2.48      357.53          52             826.347
         0.0         0.0        -0.0         0.0      357.53           3             826.347
        1.73        0.07       -0.09        1.74      357.53          52             826.347
         0.0         0.0        -0.0         0.0      357.53           2             826.347
        1.99        0.09        0.17         2.0      357.53           4             826.347
        1.93        0.08       -0.31        1.96      357.53          34             826.347
        2.02        0.09        0.25        2.04      357.53           0             826.347
        1.95        0.08       -0.24        1.97      357.53          42             826.347
        2.07        0.09        0.33         2.1      357.53           1             826.347
        1.95        0.08       -0.17        1.96      357.53          42             826.347
         2.1        0.09        0.41        2.14      357.53           1             826.347
        1.97        0.08        -0.1        1.97      357.53          26             826.347
        2.47        0.11        0.57        2.54      357.53          25             826.347
        1.96        0.08       -0.03        1.96      357.53          18             826.347
        4.73         0.2        1.27         4.9      357.53           2             826.347
