       -0.74       -1.53       -0.33
       -6.53      -13.45        1.31
       -0.75       -1.54       -0.27
       -5.02      -10.34        1.41
       -0.75       -1.54       -0.21
        -4.4       -9.07         1.6
       -0.74       -1.53       -0.15
       -3.49        -7.2        1.56
       -0.97       -2.01       -0.12
       -5.95      -12.27        3.15
       -0.94       -1.93       -0.04
       -3.77       -7.77        2.31
        -0.0        -0.0        -0.0
       -1.05       -2.15        0.04
       -0.76       -1.54        -0.4
       -1.07       -2.18       -0.13
       -0.75       -1.53       -0.33
       -6.24      -12.75        1.24
       -0.75       -1.54       -0.27
       -5.03      -10.28        1.41
       -0.75       -1.52       -0.21
       -5.06      -10.33        1.82
       -0.75       -1.54       -0.15
       -3.54       -7.23        1.57
       -0.98       -2.01       -0.12
       -3.89       -7.95        2.04
       -0.97       -1.98       -0.04
       -3.84       -7.84        2.34
        -0.0        -0.0        -0.0
       -1.05       -2.14        0.04
       -0.76       -1.53       -0.39
       -1.07       -2.17       -0.13
       -0.75       -1.52       -0.33
        -4.5        -9.1        0.89
       -0.77       -1.55       -0.27
        -5.0      -10.13        1.39
       -0.75       -1.53       -0.21
       -4.39       -8.89        1.57
       -0.76       -1.54       -0.15
       -3.53       -7.15        1.55
       -0.99       -2.01       -0.12
       -3.91       -7.93        2.04
       -0.96       -1.94       -0.04
       -3.78       -7.66        2.29
        -0.0        -0.0        -0.0
       -1.06       -2.14        0.04
       -0.77       -1.54        -0.4
       -1.08       -2.17       -0.13
       -0.75       -1.51       -0.33
       -4.51       -9.06        0.89
       -0.77       -1.55       -0.27
       -5.11      -10.27        1.41
       -0.76       -1.52       -0.21
       -4.35       -8.73        1.54
       -0.77       -1.54       -0.15
       -3.58       -7.19        1.56
        -1.0        -2.0       -0.12
       -3.92       -7.87        2.03
       -0.96       -1.93       -0.04
       -4.78       -9.59        2.87
        -0.0        -0.0        -0.0
       -1.07       -2.12        0.04
       -0.78       -1.55        -0.4
       -1.09       -2.17       -0.13
       -0.76       -1.51       -0.33
       -4.54       -9.04        0.89
       -0.78       -1.56       -0.28
       -6.26      -12.46        1.71
       -0.77       -1.54       -0.21
       -5.59      -11.14        1.97
       -0.77       -1.53       -0.15
       -3.57       -7.11        1.55
       -1.01        -2.0       -0.12
       -3.95       -7.87        2.03
       -0.97       -1.94       -0.04
       -3.84       -7.64        2.29
        -0.0        -0.0        -0.0
       -1.07       -2.11        0.04
       -0.78       -1.53        -0.4
        -1.1       -2.17       -0.13
       -0.77       -1.53       -0.33
       -4.57       -9.03        0.89
        -0.8       -1.58       -0.28
      -14.54       -28.7        3.95
       -0.78       -1.54       -0.21
       -5.16      -10.19        1.81
       -0.78       -1.53       -0.15
       -3.63       -7.16        1.56
        -1.0       -1.98       -0.12
       -3.98       -7.86        2.03
       -0.99       -1.96       -0.04
       -3.91       -7.71        2.32
        -0.0        -0.0        -0.0
       -1.08       -2.12        0.04
       -0.78       -1.53        -0.4
        -1.1       -2.16       -0.13
       -0.77       -1.51       -0.33
       -4.61       -9.03        0.89
       -0.82        -1.6       -0.28
       -6.13       -12.0        1.65
       -0.78       -1.53       -0.21
       -5.59      -10.95        1.95
       -0.78       -1.53       -0.15
       -4.77       -9.34        2.04
       -1.01       -1.98       -0.12
        -4.0       -7.84        2.03
        -1.0       -1.96       -0.04
       -3.94        -7.7        2.32
        -0.0        -0.0        -0.0
       -1.09       -2.11        0.04
        -0.8       -1.55        -0.4
       -1.11       -2.14       -0.13
       -0.78       -1.51       -0.33
       -4.65       -9.02        0.89
       -0.82        -1.6       -0.28
       -5.22      -10.12         1.4
       -0.79       -1.53       -0.21
        -5.6      -10.86        1.94
       -0.79       -1.54       -0.15
       -4.77       -9.26        2.02
       -1.02       -1.97       -0.12
       -4.69       -9.09        2.36
        -1.0       -1.94       -0.04
       -4.98       -9.67        2.91
        -0.0        -0.0        -0.0
        -1.1       -2.12        0.04
        -0.8       -1.54        -0.4
       -1.12       -2.15       -0.13
       -0.78        -1.5       -0.33
       -4.69       -9.02        0.89
       -0.83        -1.6       -0.29
       -5.24      -10.08         1.4
       -0.81       -1.56       -0.22
       -7.66      -14.74        2.63
        -0.8       -1.53       -0.15
       -4.83       -9.29        2.04
       -1.02       -1.97       -0.12
       -4.78       -9.19        2.39
       -1.01       -1.94       -0.04
       -4.88       -9.38        2.83
        -0.0        -0.0        -0.0
        -1.1        -2.1        0.04
       -0.81       -1.55        -0.4
       -1.12       -2.14       -0.13
       -0.78       -1.49       -0.33
       -4.73       -9.02        0.89
       -0.83       -1.58       -0.28
       -5.25      -10.01        1.39
        -0.9       -1.71       -0.24
       -7.39      -14.09        2.52
        -0.8       -1.52       -0.15
       -4.91       -9.35        2.05
        -1.0        -1.9       -0.11
       -4.83        -9.2         2.4
        -1.0       -1.91       -0.04
       -4.87       -9.27        2.81
        -0.0        -0.0        -0.0
        -1.1       -2.09        0.04
       -0.82       -1.55        -0.4
       -1.13       -2.14       -0.13
       -0.81       -1.53       -0.34
       -4.77       -9.02        0.89
       -0.83       -1.57       -0.28
       -5.27       -9.95        1.38
       -0.82       -1.54       -0.21
       -4.84       -9.15        1.64
        -0.8       -1.52       -0.15
        -4.9       -9.27        2.04
        -1.0       -1.89       -0.11
       -4.83       -9.13        2.38
       -1.02       -1.93       -0.04
        -5.1       -9.63        2.92
        -0.0        -0.0        -0.0
       -1.12       -2.09        0.04
       -0.82       -1.54        -0.4
       -1.14       -2.13       -0.13
       -0.82       -1.53       -0.34
       -4.82       -9.04         0.9
       -0.81       -1.51       -0.27
       -5.32       -9.97        1.39
       -0.79       -1.48       -0.21
       -4.97       -9.32        1.67
       -0.81       -1.52       -0.15
       -4.91       -9.21        2.03
       -1.03       -1.92       -0.11
       -4.88       -9.15        2.39
       -1.03       -1.94       -0.04
       -5.27       -9.88         3.0
        -0.0        -0.0        -0.0
       -1.11       -2.07        0.04
       -0.83       -1.53        -0.4
       -1.14       -2.12       -0.13
       -0.81       -1.51       -0.33
        -7.1      -13.19        1.31
        -0.8       -1.49       -0.27
       -4.93       -9.16        1.28
        -0.8       -1.49       -0.21
       -4.99       -9.28        1.67
       -0.82       -1.52       -0.15
       -4.95       -9.19        2.03
       -1.05       -1.95       -0.12
       -4.92       -9.15         2.4
       -1.02        -1.9       -0.04
       -4.91       -9.13        2.78
        -0.0        -0.0        -0.0
       -1.13       -2.08        0.04
       -0.83       -1.53        -0.4
       -1.15       -2.12       -0.13
       -0.82       -1.51       -0.33
       -7.56      -13.94        1.39
       -0.82       -1.51       -0.27
       -6.77      -12.48        1.74
       -0.81        -1.5       -0.21
       -5.02       -9.26        1.67
       -0.82       -1.51       -0.15
       -4.98       -9.19        2.03
       -1.06       -1.95       -0.12
       -5.16       -9.51         2.5
       -1.04       -1.92       -0.04
        -0.0        -0.0         0.0
        -0.0        -0.0        -0.0
       -1.13       -2.06        0.04
       -0.88       -1.61       -0.42
       -1.16       -2.12       -0.13
       -0.84       -1.53       -0.34
       -7.58      -13.85        1.38
       -0.89       -1.62       -0.29
       -5.06       -9.26         1.3
       -0.85       -1.55       -0.22
       -5.06       -9.25        1.67
       -0.83       -1.52       -0.15
       -6.93      -12.67        2.81
       -1.07       -1.95       -0.12
       -5.22       -9.54        2.51
       -1.04       -1.89       -0.04
       -5.07       -9.27        2.83
        -0.0        -0.0        -0.0
       -1.13       -2.05        0.04
       -0.97       -1.76       -0.46
       -1.17       -2.12       -0.13
       -0.87       -1.58       -0.35
       -5.56      -10.09        1.01
       -0.98       -1.77       -0.32
       -5.06       -9.18        1.29
       -0.98       -1.77       -0.25
        -5.1       -9.25        1.67
       -0.88       -1.59       -0.16
       -6.94      -12.58        2.79
       -1.07       -1.94       -0.12
       -4.95       -8.97        2.36
       -1.04       -1.89       -0.04
        -5.1       -9.25        2.83
        -0.0        -0.0        -0.0
       -1.14       -2.06        0.04
        -1.0        -1.8       -0.48
       -1.17        -2.1       -0.13
       -0.96       -1.73       -0.39
        -5.5       -9.88        0.99
       -0.99       -1.79       -0.32
       -5.07       -9.11        1.28
        -1.0        -1.8       -0.25
       -5.18       -9.32        1.69
       -0.91       -1.64       -0.16
       -7.04      -12.67        2.82
       -1.08       -1.93       -0.12
       -4.99       -8.98        2.37
       -1.06       -1.91       -0.04
       -5.11        -9.2        2.82
        -0.0        -0.0        -0.0
       -1.15       -2.05        0.04
       -1.01       -1.81       -0.48
       -1.17       -2.09       -0.13
       -1.01       -1.79        -0.4
       -5.12       -9.14        0.92
       -1.01       -1.79       -0.33
        -5.1        -9.1        1.28
       -0.99       -1.77       -0.25
       -7.23       -12.9        2.34
       -0.95        -1.7       -0.17
       -8.14      -14.52        3.24
       -1.08       -1.93       -0.12
       -5.13       -9.16        2.42
       -1.06        -1.9       -0.04
       -5.26       -9.39        2.88
        -0.0        -0.0        -0.0
       -1.16       -2.05        0.04
       -1.03       -1.82       -0.48
       -1.18        -2.1       -0.13
       -1.02        -1.8        -0.4
       -5.13       -9.08        0.91
       -1.03       -1.82       -0.33
       -5.13       -9.09        1.28
       -1.01       -1.79       -0.25
       -7.27      -12.86        2.34
       -0.97       -1.71       -0.17
       -8.16      -14.45        3.23
       -1.09       -1.93       -0.12
       -5.35       -9.46        2.51
       -1.06       -1.87       -0.04
       -5.23       -9.25        2.85
        -0.0        -0.0        -0.0
       -1.15       -2.03        0.04
       -1.09       -1.92       -0.51
       -1.19       -2.09       -0.13
        -1.1       -1.93       -0.43
       -5.16       -9.05        0.91
       -1.07       -1.88       -0.34
       -5.18       -9.09        1.28
       -1.07       -1.88       -0.27
       -7.42      -13.02        2.37
        -0.0        -0.0        -0.0
       -7.16      -12.56        2.81
        -1.1       -1.93       -0.12
        -5.4       -9.47        2.52
       -1.07       -1.87       -0.04
       -5.22       -9.16        2.82
        -0.0        -0.0        -0.0
       -1.16       -2.02        0.04
       -1.11       -1.93       -0.52
        -1.2       -2.09       -0.13
       -1.11       -1.93       -0.43
       -4.46       -7.78        0.78
        -1.1       -1.91       -0.35
       -5.23       -9.11        1.29
        -1.1       -1.92       -0.27
       -7.17      -12.49        2.28
        -1.1       -1.92       -0.19
       -8.28      -14.42        3.23
        -1.1       -1.92       -0.12
       -5.44       -9.48        2.52
       -1.08       -1.89       -0.04
       -5.27       -9.18        2.84
        -0.0        -0.0        -0.0
       -1.17       -2.02        0.04
       -1.11       -1.92       -0.51
        -1.2       -2.08       -0.13
       -1.11       -1.92       -0.43
       -5.23       -9.02        0.91
       -1.11       -1.91       -0.35
       -5.95      -10.28        1.46
       -1.09       -1.88       -0.27
       -7.14      -12.33        2.26
       -1.11       -1.91       -0.19
       -8.28       -14.3        3.21
       -1.11       -1.91       -0.12
       -7.23      -12.49        3.33
       -1.09       -1.89       -0.04
       -5.57       -9.62        2.98
        -0.0        -0.0        -0.0
       -1.18       -2.02        0.04
       -1.12       -1.92       -0.51
       -1.21       -2.07       -0.13
       -1.11       -1.91       -0.43
       -5.28       -9.05        0.92
       -1.12       -1.91       -0.35
       -5.24       -8.98        1.28
       -1.07       -1.83       -0.26
       -7.33      -12.56         2.3
       -1.11        -1.9       -0.19
       -8.31      -14.25        3.21
       -1.12       -1.91       -0.12
       -5.26       -9.02        2.41
       -1.09       -1.88       -0.04
       -5.38       -9.22        2.86
        -0.0        -0.0        -0.0
       -1.18       -2.01        0.04
       -1.13       -1.92       -0.51
       -1.22       -2.07       -0.13
       -1.12        -1.9       -0.43
       -5.77       -9.81         1.0
       -1.12       -1.91       -0.35
        -6.1      -10.37        1.48
       -1.12       -1.91       -0.27
       -8.99      -15.29        2.81
       -1.11       -1.89       -0.19
       -7.48      -12.72        2.87
       -1.12       -1.91       -0.12
        -5.3       -9.01        2.41
        -1.1       -1.87       -0.04
       -5.44       -9.25        2.88
        -0.0        -0.0        -0.0
       -1.19        -2.0        0.04
       -1.14       -1.92       -0.52
       -1.22       -2.07       -0.13
       -1.13        -1.9       -0.43
       -5.72       -9.64        0.98
       -1.04       -1.76       -0.32
       -6.12      -10.32        1.47
       -1.13       -1.91       -0.27
       -8.98      -15.15        2.79
       -1.12       -1.88       -0.19
       -7.54      -12.71        2.87
       -1.13       -1.91       -0.12
       -5.32       -8.97        2.41
       -1.11       -1.87       -0.04
        -5.6       -9.44        2.94
        -0.0        -0.0        -0.0
       -1.19       -1.99        0.04
       -1.14       -1.91       -0.51
       -1.24       -2.07       -0.13
       -1.13        -1.9       -0.43
       -5.79       -9.68        0.99
        -1.1       -1.85       -0.34
       -6.14      -10.27        1.47
       -1.14       -1.91       -0.27
       -8.87      -14.85        2.74
       -1.13       -1.89       -0.19
       -8.67       -14.5        3.28
       -1.13        -1.9       -0.12
       -5.34       -8.94         2.4
       -1.12       -1.87       -0.04
       -5.65       -9.46        2.95
        -0.0        -0.0        -0.0
        -1.2       -1.99        0.04
       -1.15        -1.9       -0.51
       -1.24       -2.05       -0.13
       -1.14       -1.89       -0.43
       -5.76       -9.56        0.98
       -1.14       -1.89       -0.35
       -6.17      -10.25        1.47
       -1.14        -1.9       -0.27
        -8.8      -14.62         2.7
       -1.13       -1.88       -0.19
       -7.27      -12.08        2.74
       -1.14       -1.89       -0.12
       -5.29       -8.79        2.37
       -1.12       -1.86       -0.04
       -7.63      -12.67        3.96
        -0.0        -0.0        -0.0
        -1.2       -1.98        0.04
       -1.15        -1.9       -0.51
       -1.24       -2.05       -0.13
       -1.09       -1.79       -0.41
       -5.78       -9.53        0.98
       -1.14       -1.88       -0.35
       -6.24      -10.28        1.48
       -1.15       -1.89       -0.27
       -8.86      -14.61        2.71
       -1.14       -1.88       -0.19
       -7.57      -12.48        2.84
       -1.15       -1.89       -0.12
       -5.06       -8.34        2.25
       -1.12       -1.85       -0.04
       -7.71      -12.72        3.98
        -0.0        -0.0        -0.0
       -1.21       -1.98        0.04
       -1.16        -1.9       -0.51
       -1.25       -2.04       -0.13
       -1.15       -1.87       -0.43
       -7.63      -12.48        1.28
       -1.15       -1.88       -0.35
       -8.35      -13.66        1.97
       -1.15       -1.89       -0.27
       -8.92      -14.58        2.71
       -1.14       -1.87       -0.19
       -6.58      -10.76        2.45
       -1.15       -1.88       -0.12
       -4.62       -7.55        2.04
       -1.13       -1.85       -0.04
        -6.6      -10.79        3.39
        -0.0        -0.0        -0.0
       -1.21       -1.97        0.04
       -1.15       -1.87       -0.51
       -1.26       -2.04       -0.13
       -1.16       -1.88       -0.43
       -7.85      -12.74        1.31
       -1.15       -1.87       -0.35
       -6.34      -10.28        1.48
       -1.16       -1.89       -0.27
       -7.74      -12.56        2.34
       -1.15       -1.86       -0.19
       -7.63      -12.38        2.83
       -1.16       -1.88       -0.12
       -4.69        -7.6        2.06
       -1.14       -1.85       -0.04
       -8.83      -14.32        4.51
        -0.0        -0.0        -0.0
       -1.22       -1.96        0.04
       -1.13       -1.82       -0.49
       -1.27       -2.04       -0.13
       -1.17       -1.88       -0.43
       -7.74      -12.46        1.28
       -1.16       -1.87       -0.35
       -8.18      -13.17         1.9
       -1.17       -1.89       -0.27
        -7.8      -12.56        2.34
       -1.16       -1.86       -0.19
       -5.17       -8.33        1.91
       -1.16       -1.87       -0.12
       -7.56      -12.16        3.31
       -1.15       -1.84       -0.04
        -8.9      -14.33        4.52
        -0.0        -0.0        -0.0
       -1.23       -1.96        0.04
       -1.17       -1.86       -0.51
       -1.27       -2.02       -0.13
       -1.18       -1.88       -0.43
       -7.92      -12.65        1.31
       -1.17       -1.87       -0.35
        -4.7        -7.5        1.09
       -1.17       -1.88       -0.27
       -6.71      -10.71         2.0
       -1.16       -1.86       -0.19
       -7.72      -12.33        2.83
       -1.17       -1.87       -0.12
       -5.47       -8.74        2.38
       -1.16       -1.85       -0.04
        -8.9      -14.22         4.5
        -0.0        -0.0        -0.0
       -1.23       -1.95        0.04
       -1.18       -1.86       -0.51
       -1.27       -2.02       -0.13
       -1.18       -1.86       -0.43
       -7.96      -12.62        1.31
       -1.18       -1.86       -0.35
       -8.25      -13.08         1.9
       -1.18       -1.87       -0.27
        -6.7      -10.62        1.99
       -1.17       -1.86       -0.19
        -5.2       -8.24        1.89
       -1.18       -1.86       -0.12
        -5.5       -8.72        2.38
       -1.16       -1.83       -0.04
       -8.95      -14.19         4.5
        -0.0        -0.0        -0.0
       -1.25       -1.96        0.04
       -1.19       -1.87       -0.51
       -1.28       -2.02       -0.13
       -1.18       -1.86       -0.43
       -5.55       -8.72         0.9
       -1.18       -1.86       -0.35
        -4.7       -7.39        1.07
       -1.19       -1.87       -0.27
       -4.73       -7.44         1.4
       -1.17       -1.85       -0.19
       -4.98       -7.84        1.81
       -1.18       -1.86       -0.12
       -5.54       -8.71        2.38
       -1.16       -1.83       -0.04
       -7.88       -12.4        3.94
        -0.0        -0.0        -0.0
       -1.25       -1.95        0.04
       -1.19       -1.86       -0.51
       -1.29       -2.01       -0.13
       -1.19       -1.86       -0.43
       -5.59       -8.73        0.91
       -1.18       -1.85       -0.35
       -4.72       -7.37        1.07
        -1.2       -1.87       -0.27
       -6.73      -10.51        1.98
       -1.18       -1.84       -0.19
       -5.57        -8.7        2.01
       -1.19       -1.86       -0.12
       -4.95       -7.72        2.12
       -1.17       -1.83       -0.04
        -0.0        -0.0         0.0
        -0.0        -0.0        -0.0
       -1.26       -1.94        0.04
        -1.2       -1.86       -0.51
        -1.3       -2.02       -0.13
        -1.2       -1.86       -0.43
       -5.62        -8.7        0.91
       -1.19       -1.85       -0.35
       -6.53      -10.12        1.48
        -1.2       -1.86       -0.27
       -7.21      -11.17        2.11
       -1.19       -1.84       -0.19
        -7.4      -11.46        2.65
       -1.19       -1.85       -0.12
       -5.01       -7.76        2.13
       -1.18       -1.82       -0.04
       -7.93      -12.28        3.92
        -0.0        -0.0        -0.0
       -1.26       -1.94        0.04
        -1.2       -1.85       -0.51
        -1.3       -1.99       -0.12
       -1.21       -1.85       -0.43
       -6.48       -9.96        1.04
        -1.2       -1.85       -0.35
       -6.55      -10.07        1.48
        -1.2       -1.85       -0.27
       -6.62      -10.18        1.92
        -1.2       -1.84       -0.19
       -5.42       -8.33        1.93
        -1.2       -1.84       -0.12
       -5.05       -7.77        2.14
       -1.18       -1.82       -0.04
       -6.64      -10.21        3.26
        -0.0        -0.0        -0.0
       -1.27       -1.93        0.04
       -1.21       -1.85       -0.51
        -1.3       -1.99       -0.12
       -1.21       -1.84       -0.43
       -4.87       -7.43        0.78
       -1.21       -1.84       -0.35
       -6.61      -10.09        1.48
       -1.21       -1.85       -0.27
       -6.67      -10.17        1.93
        -1.2       -1.84       -0.19
        -5.5       -8.38        1.95
       -1.21       -1.84       -0.12
       -5.09       -7.76        2.14
       -1.19       -1.81       -0.04
       -8.13       -12.4        3.97
        -0.0        -0.0        -0.0
       -1.28       -1.94        0.04
       -1.22       -1.84       -0.51
       -1.31       -1.99       -0.12
       -1.21       -1.84       -0.43
       -5.62        -8.5        0.89
       -1.22       -1.84       -0.35
       -6.66      -10.09        1.48
       -1.22       -1.85       -0.27
       -6.79      -10.28        1.95
       -1.21       -1.83       -0.19
       -5.65       -8.55        1.99
       -1.22       -1.84       -0.12
       -5.38       -8.14        2.25
       -1.19       -1.81       -0.04
        -0.0        -0.0         0.0
        -0.0        -0.0        -0.0
       -1.28       -1.92        0.04
       -1.22       -1.84       -0.51
       -1.32       -1.99       -0.13
       -1.22       -1.84       -0.43
       -5.64       -8.47        0.89
       -1.22       -1.83       -0.35
        -8.1      -12.16        1.79
       -1.23       -1.85       -0.27
       -7.32       -11.0        2.09
       -1.21       -1.82       -0.19
       -5.07       -7.61        1.78
       -1.22       -1.84       -0.12
       -5.23       -7.86        2.18
        -1.2        -1.8       -0.04
        -8.4      -12.62        4.06
        -0.0        -0.0        -0.0
       -1.29       -1.92        0.04
       -1.24       -1.85       -0.51
       -1.33       -1.99       -0.13
       -1.23       -1.84       -0.43
       -5.79       -8.63        0.91
       -1.22       -1.82       -0.35
       -8.11       -12.1        1.79
       -1.24       -1.84       -0.27
        -6.8      -10.15        1.93
       -1.22       -1.82       -0.19
        -5.3       -7.91        1.85
       -1.23       -1.83       -0.12
        -5.3       -7.91         2.2
       -1.21        -1.8       -0.04
       -8.07      -12.03        3.88
        -0.0        -0.0        -0.0
       -1.29       -1.91        0.04
       -1.23       -1.82       -0.51
       -1.33       -1.97       -0.12
       -1.24       -1.83       -0.43
       -5.85       -8.65        0.91
       -1.23       -1.82       -0.35
      -17.79      -26.32         3.9
       -1.24       -1.83       -0.27
       -7.28      -10.77        2.06
       -1.23       -1.81       -0.19
       -5.37       -7.94        1.86
       -1.23       -1.82       -0.12
       -5.79       -8.58        2.39
       -1.22        -1.8       -0.04
       -8.12      -12.01        3.89
        -0.0        -0.0        -0.0
       -1.31       -1.92        0.04
       -1.24       -1.82       -0.51
       -1.34       -1.97       -0.13
       -1.24       -1.82       -0.43
       -5.79        -8.5         0.9
       -1.24       -1.82       -0.35
       -6.74        -9.9        1.47
       -1.24       -1.83       -0.27
       -8.44       -12.4        2.38
       -1.23       -1.81       -0.19
       -5.42       -7.96        1.87
       -1.24       -1.82       -0.12
       -5.83       -8.56        2.39
       -1.22       -1.79       -0.04
       -8.33      -12.23        3.96
        -0.0        -0.0        -0.0
       -1.31       -1.91        0.04
       -1.25       -1.82       -0.51
       -1.35       -1.97       -0.13
       -1.25       -1.82       -0.43
       -5.88       -8.57        0.91
       -1.25       -1.82       -0.35
       -1.35       -1.97        0.29
       -1.25       -1.83       -0.27
        -7.3      -10.64        2.04
       -1.24        -1.8       -0.19
       -8.15      -11.89         2.8
       -1.25       -1.81       -0.12
       -5.86       -8.54        2.39
       -1.22       -1.78       -0.04
       -8.38      -12.22        3.97
        -0.0        -0.0        -0.0
       -1.31        -1.9        0.04
       -1.26       -1.82       -0.51
       -1.35       -1.96       -0.12
       -1.25       -1.81       -0.43
        -5.8        -8.4        0.89
       -1.25       -1.81       -0.35
      -18.05      -26.11         3.9
       -1.26       -1.82       -0.27
       -7.43      -10.76        2.07
       -1.24        -1.8       -0.19
       -5.76       -8.34        1.97
       -1.26       -1.82       -0.12
       -8.83      -12.77        3.58
       -1.23       -1.78       -0.04
       -8.45      -12.23        3.98
        -0.0        -0.0        -0.0
       -1.32       -1.89        0.04
       -1.26       -1.81       -0.51
       -1.37       -1.97       -0.13
       -1.26       -1.82       -0.43
       -1.38       -1.98        0.21
       -1.26        -1.8       -0.35
      -18.12      -26.02        3.89
       -1.27       -1.82       -0.27
       -7.46      -10.71        2.07
       -1.25        -1.8       -0.19
       -5.73       -8.23        1.95
       -1.26       -1.81       -0.12
       -5.51       -7.91        2.22
       -1.24       -1.78       -0.04
       -8.52      -12.24         4.0
        -0.0        -0.0        -0.0
       -1.33       -1.89        0.04
       -1.26        -1.8       -0.51
       -1.37       -1.95       -0.13
       -1.27       -1.81       -0.43
       -1.37       -1.95        0.21
       -1.26        -1.8       -0.35
        -7.1      -10.12        1.52
       -1.26        -1.8       -0.27
       -7.12      -10.15        1.96
       -1.26        -1.8       -0.19
       -5.74       -8.19        1.94
       -1.26        -1.8       -0.12
       -5.52       -7.87        2.22
       -1.25       -1.78       -0.04
       -8.54      -12.18        3.99
        -0.0        -0.0        -0.0
       -1.34       -1.89        0.04
       -1.27        -1.8       -0.51
       -1.37       -1.94       -0.12
       -1.27        -1.8       -0.43
       -1.39       -1.96        0.21
       -1.27        -1.8       -0.35
       -7.12      -10.07        1.51
       -1.28        -1.8       -0.27
       -7.64      -10.81         2.1
       -1.27       -1.79       -0.19
       -5.82       -8.23        1.96
       -1.27        -1.8       -0.12
       -5.53       -7.83        2.21
       -1.25       -1.77       -0.04
       -8.58      -12.14        3.98
        -0.0        -0.0        -0.0
       -1.35       -1.89        0.04
       -1.28        -1.8       -0.51
       -1.38       -1.94       -0.12
       -1.28        -1.8       -0.43
       -9.44      -13.26        1.42
       -1.28        -1.8       -0.35
       -1.41       -1.97         0.3
       -1.29       -1.81       -0.27
       -8.69      -12.21        2.37
       -1.27       -1.78       -0.19
       -5.32       -7.47        1.78
       -1.28        -1.8       -0.12
       -5.54       -7.79        2.21
       -1.25       -1.76       -0.04
       -8.47       -11.9        3.91
        -0.0        -0.0        -0.0
       -1.35       -1.88        0.04
       -1.29        -1.8       -0.51
       -1.39       -1.94       -0.13
       -1.28       -1.79       -0.43
       -6.46       -9.01        0.97
       -1.28       -1.79       -0.35
       -7.17       -10.0        1.51
       -1.29        -1.8       -0.27
       -8.69      -12.12        2.36
       -1.27       -1.78       -0.19
       -5.84       -8.15        1.95
       -1.29        -1.8       -0.12
       -5.62       -7.84        2.23
       -1.26       -1.76       -0.04
       -7.29      -10.18        3.36
        -0.0        -0.0        -0.0
       -1.35       -1.87        0.04
       -1.29       -1.79       -0.51
        -1.4       -1.93       -0.13
       -1.29       -1.79       -0.43
       -1.39       -1.93        0.21
       -1.28       -1.78       -0.35
       -7.18       -9.94        1.51
        -1.3        -1.8       -0.27
       -6.29       -8.71         1.7
       -1.28       -1.78       -0.19
        -6.0       -8.31        1.99
       -1.29       -1.78       -0.12
       -5.64       -7.81        2.22
       -1.27       -1.76       -0.04
       -7.24      -10.03        3.31
        -0.0        -0.0        -0.0
       -1.35       -1.86        0.04
        -1.3       -1.78       -0.51
        -1.4       -1.93       -0.12
        -1.3       -1.79       -0.43
        -1.4       -1.93        0.21
        -1.3       -1.78       -0.35
        -7.2        -9.9         1.5
        -1.3       -1.78       -0.27
       -1.45       -1.99        0.39
       -1.29       -1.77       -0.19
       -6.02       -8.27        1.99
       -1.29       -1.78       -0.12
       -5.71       -7.85        2.24
       -1.28       -1.75       -0.04
       -8.52      -11.71        3.88
        -0.0        -0.0        -0.0
       -1.36       -1.86        0.04
        -1.3       -1.78       -0.51
       -1.41       -1.92       -0.12
        -1.3       -1.78       -0.43
        -1.4       -1.91        0.21
        -1.3       -1.78       -0.35
       -6.36       -8.68        1.32
        -1.3       -1.78       -0.27
       -6.32       -8.62        1.69
        -1.3       -1.78       -0.19
       -7.39      -10.08        2.43
        -1.3       -1.78       -0.12
       -8.57      -11.69        3.35
       -1.28       -1.74       -0.04
       -8.47      -11.55        3.84
        -0.0        -0.0        -0.0
       -1.37       -1.85        0.04
       -1.31       -1.78       -0.51
       -1.41       -1.92       -0.12
       -1.31       -1.78       -0.43
       -7.25       -9.82        1.07
       -1.31       -1.78       -0.35
       -6.36       -8.63        1.32
       -1.31       -1.78       -0.27
       -6.36       -8.62         1.7
        -1.3       -1.76       -0.19
       -7.41      -10.04        2.43
       -1.31       -1.77       -0.12
       -8.47      -11.48        3.29
       -1.28       -1.74       -0.04
       -8.57      -11.61        3.87
        -0.0        -0.0        -0.0
       -1.37       -1.84        0.04
       -1.32       -1.78       -0.51
       -1.43       -1.92       -0.13
       -1.32       -1.77       -0.43
        -1.4       -1.89        0.21
       -1.31       -1.76       -0.35
       -8.48      -11.41        1.75
       -1.32       -1.78       -0.27
       -6.41       -8.62         1.7
        -1.3       -1.75       -0.19
       -7.46      -10.04        2.43
       -1.32       -1.77       -0.12
       -6.42       -8.64        2.48
       -1.29       -1.74       -0.04
       -1.46       -1.96        0.66
        -0.0        -0.0        -0.0
       -1.37       -1.83        0.04
       -1.32       -1.76       -0.51
       -1.43       -1.91       -0.13
       -1.33       -1.77       -0.43
       -1.42        -1.9        0.21
       -1.32       -1.76       -0.35
       -8.57      -11.45        1.76
       -1.33       -1.78       -0.27
       -1.45       -1.93        0.38
       -1.31       -1.76       -0.19
       -1.44       -1.92        0.47
       -1.32       -1.76       -0.12
       -1.44       -1.93        0.56
        -1.3       -1.74       -0.04
       -1.43       -1.91        0.64
        -0.0        -0.0        -0.0
       -1.37       -1.82        0.04
       -1.33       -1.76       -0.51
       -1.43        -1.9       -0.12
       -1.33       -1.77       -0.43
       -1.44       -1.91        0.21
       -1.33       -1.76       -0.35
       -1.43        -1.9        0.29
       -1.33       -1.77       -0.27
       -1.46       -1.94        0.38
       -1.32       -1.75       -0.19
       -1.43        -1.9        0.46
       -1.33       -1.76       -0.12
       -1.42       -1.89        0.55
       -1.31       -1.73       -0.04
       -1.44        -1.9        0.64
        -0.0        -0.0        -0.0
       -1.38       -1.82        0.04
       -1.33       -1.76       -0.51
       -1.44        -1.9       -0.13
       -1.33       -1.76       -0.43
       -1.45       -1.91        0.21
       -1.33       -1.75       -0.35
       -1.43       -1.88        0.29
       -1.34       -1.76       -0.27
       -1.44        -1.9        0.38
       -1.33       -1.75       -0.19
       -1.43       -1.89        0.46
       -1.33       -1.75       -0.12
        -0.0        -0.0         0.0
       -1.31       -1.72       -0.04
        -0.0        -0.0         0.0
        -0.0        -0.0        -0.0
       -1.38       -1.81        0.04
       -1.35       -1.76       -0.51
       -1.45        -1.9       -0.13
       -1.34       -1.76       -0.43
       -1.45       -1.89        0.21
       -1.34       -1.75       -0.35
       -1.44       -1.88        0.29
       -1.35       -1.76       -0.27
        -0.0        -0.0         0.0
       -1.33       -1.74       -0.19
        -0.0        -0.0         0.0
       -1.34       -1.75       -0.12
        -0.0        -0.0         0.0
       -1.32       -1.72       -0.04
       -1.41       -1.84        0.62
        -0.0        -0.0        -0.0
       -1.39        -1.8        0.04
       -1.35       -1.75       -0.51
       -1.45       -1.88       -0.12
       -1.35       -1.75       -0.43
        -0.0        -0.0         0.0
       -1.34       -1.74       -0.35
        -0.0        -0.0         0.0
       -1.35       -1.76       -0.27
       -1.41       -1.83        0.37
       -1.33       -1.73       -0.19
        -0.0        -0.0         0.0
       -1.35       -1.75       -0.12
       -1.44       -1.87        0.54
       -1.32       -1.72       -0.04
       -1.42       -1.84        0.62
        -0.0        -0.0        -0.0
       -1.39       -1.79        0.04
       -1.35       -1.74       -0.51
       -1.45       -1.86       -0.12
       -1.36       -1.75       -0.43
        -0.0        -0.0         0.0
       -1.35       -1.74       -0.35
       -1.44       -1.85        0.29
       -1.36       -1.75       -0.27
       -1.44       -1.85        0.37
       -1.35       -1.73       -0.19
       -1.44       -1.86        0.46
       -1.35       -1.74       -0.12
       -1.45       -1.86        0.54
       -1.33       -1.72       -0.04
       -1.43       -1.84        0.63
        -0.0        -0.0        -0.0
        -1.4       -1.78        0.04
       -1.36       -1.74       -0.51
       -1.45       -1.85       -0.12
       -1.37       -1.75       -0.43
       -1.45       -1.86        0.21
       -1.36       -1.74       -0.35
       -1.44       -1.85        0.29
       -1.36       -1.74       -0.27
       -1.46       -1.87        0.38
       -1.35       -1.73       -0.19
       -1.45       -1.85        0.46
       -1.36       -1.73       -0.12
       -1.45       -1.85        0.54
       -1.34       -1.71       -0.04
       -1.44       -1.84        0.63
        -0.0        -0.0        -0.0
        -1.4       -1.78        0.04
       -1.37       -1.74       -0.51
       -1.45       -1.85       -0.12
       -1.37       -1.73       -0.43
       -1.46       -1.86        0.21
       -1.37       -1.73       -0.35
       -1.45       -1.85        0.29
       -1.37       -1.74       -0.27
       -1.45       -1.84        0.37
       -1.36       -1.73       -0.19
       -1.46       -1.85        0.46
       -1.36       -1.73       -0.12
       -1.45       -1.84        0.54
       -1.34        -1.7       -0.04
       -1.46       -1.85        0.63
        -0.0        -0.0        -0.0
       -1.41       -1.78        0.04
       -1.37       -1.73       -0.51
       -1.46       -1.84       -0.12
       -1.37       -1.73       -0.43
       -1.47       -1.85        0.21
       -1.37       -1.73       -0.35
       -1.47       -1.85        0.29
       -1.38       -1.73       -0.27
       -1.47       -1.85        0.37
       -1.36       -1.72       -0.19
        -0.0        -0.0         0.0
       -1.37       -1.73       -0.12
        -0.0        -0.0         0.0
       -1.34       -1.69       -0.04
       -6.76       -8.52        2.91
        -0.0        -0.0        -0.0
       -1.41       -1.77        0.04
       -1.39       -1.74       -0.51
       -1.47       -1.83       -0.12
       -1.38       -1.73       -0.43
        -0.0        -0.0         0.0
       -1.37       -1.72       -0.35
        -0.0        -0.0         0.0
       -1.38       -1.73       -0.27
        -0.0        -0.0         0.0
       -1.37       -1.71       -0.19
       -7.21       -9.03        2.25
       -1.38       -1.73       -0.12
       -6.68       -8.36        2.47
       -1.35       -1.69       -0.04
       -6.62       -8.28        2.84
        -0.0        -0.0        -0.0
       -1.42       -1.76        0.04
       -1.38       -1.72       -0.51
       -1.48       -1.84       -0.12
       -1.39       -1.73       -0.43
        -0.0        -0.0         0.0
       -1.38       -1.72       -0.35
        -0.0        -0.0         0.0
       -1.39       -1.73       -0.27
       -7.88       -9.79        1.99
       -1.38       -1.71       -0.19
       -7.41       -9.21         2.3
       -1.38       -1.72       -0.12
       -7.01       -8.72        2.58
       -1.36       -1.69       -0.04
        -6.7       -8.32        2.86
        -0.0        -0.0        -0.0
       -1.43       -1.76        0.04
       -1.39       -1.72       -0.51
       -1.48       -1.83       -0.12
        -1.4       -1.73       -0.43
       -7.37       -9.09        1.02
       -1.39       -1.71       -0.35
       -7.06       -8.71        1.38
       -1.39       -1.72       -0.27
       -6.86       -8.46        1.73
       -1.38       -1.71       -0.19
       -7.44       -9.18         2.3
       -1.38       -1.71       -0.12
       -7.36       -9.08         2.7
       -1.37       -1.69       -0.04
       -6.98       -8.61        2.97
        -0.0        -0.0        -0.0
       -1.44       -1.76        0.04
        -1.4       -1.72       -0.51
       -1.49       -1.82       -0.12
        -1.4       -1.71       -0.43
       -7.37       -9.03        1.02
        -1.4       -1.71       -0.35
       -7.09       -8.69        1.38
        -1.4       -1.71       -0.27
       -6.91       -8.47        1.73
       -1.39       -1.71       -0.19
        -6.7       -8.21        2.06
       -1.39       -1.71       -0.12
        -7.3       -8.95        2.67
       -1.37       -1.68       -0.04
       -6.72       -8.23        2.85
        -0.0        -0.0        -0.0
       -1.44       -1.75        0.04
       -1.41       -1.72       -0.51
       -1.49       -1.82       -0.12
        -1.4       -1.71       -0.43
       -7.04       -8.56        0.97
       -1.41       -1.71       -0.35
       -7.12       -8.66        1.38
       -1.41       -1.72       -0.27
       -6.93       -8.43        1.73
       -1.39       -1.69       -0.19
       -7.32        -8.9        2.24
       -1.41       -1.71       -0.12
        -7.4        -9.0        2.69
       -1.38       -1.67       -0.04
       -6.85       -8.34        2.89
        -0.0        -0.0        -0.0
       -1.43       -1.73        0.04
       -1.42       -1.71       -0.51
        -1.5       -1.82       -0.12
       -1.41       -1.71       -0.43
       -7.62       -9.21        1.05
       -1.41        -1.7       -0.35
       -7.05       -8.52        1.36
       -1.42       -1.71       -0.27
       -6.95        -8.4        1.73
        -1.4       -1.69       -0.19
       -7.17       -8.66        2.19
       -1.41        -1.7       -0.12
       -7.16       -8.65        2.59
       -1.39       -1.68       -0.04
       -7.51       -9.07        3.16
        -0.0        -0.0        -0.0
       -1.43       -1.72        0.04
       -1.42        -1.7       -0.51
       -1.51       -1.82       -0.12
       -1.42        -1.7       -0.43
       -1.52       -1.83        0.21
       -1.41       -1.69       -0.35
       -7.07       -8.48        1.36
       -1.42       -1.71       -0.27
       -7.02       -8.42        1.74
       -1.41       -1.69       -0.19
       -7.14       -8.57        2.17
       -1.42        -1.7       -0.12
       -7.37       -8.84        2.66
       -1.39       -1.67       -0.04
       -6.93       -8.32         2.9
        -0.0        -0.0        -0.0
       -1.44       -1.71        0.04
       -1.43        -1.7       -0.51
       -1.51        -1.8       -0.12
       -1.43        -1.7       -0.43
       -9.12      -10.87        1.24
       -1.42       -1.69       -0.35
       -7.13       -8.49        1.36
       -1.43        -1.7       -0.27
       -7.31       -8.71         1.8
       -1.41       -1.68       -0.19
       -7.15       -8.52        2.16
       -1.42       -1.69       -0.12
       -7.47        -8.9        2.68
        -1.4       -1.67       -0.04
       -7.68       -9.15         3.2
        -0.0        -0.0        -0.0
       -1.44       -1.71        0.04
       -1.43        -1.7       -0.51
       -1.52        -1.8       -0.12
       -1.43       -1.69       -0.43
       -1.56       -1.84        0.21
       -1.43       -1.69       -0.35
       -9.57      -11.33        1.82
       -1.43        -1.7       -0.27
       -7.44        -8.8        1.83
       -1.42       -1.68       -0.19
       -7.18       -8.49        2.16
       -1.43       -1.69       -0.12
       -7.47       -8.84        2.67
        -1.4       -1.66       -0.04
       -7.59       -8.98        3.15
        -0.0        -0.0        -0.0
       -1.46       -1.71        0.04
       -1.44       -1.69       -0.51
       -1.53        -1.8       -0.12
       -1.43       -1.68       -0.43
       -9.37       -11.0        1.26
       -1.44       -1.69       -0.35
       -7.78       -9.14        1.47
       -1.44       -1.69       -0.27
       -7.79       -9.15         1.9
       -1.42       -1.67       -0.19
       -7.39       -8.68        2.22
       -1.43       -1.69       -0.12
       -8.75      -10.28        3.12
       -1.41       -1.65       -0.04
       -7.65       -8.98        3.16
        -0.0        -0.0        -0.0
       -1.45        -1.7        0.04
       -1.46        -1.7       -0.52
       -1.54        -1.8       -0.12
       -1.44       -1.68       -0.43
       -7.24       -8.45        0.97
       -1.44       -1.68       -0.35
       -7.24       -8.45        1.37
       -1.45       -1.69       -0.27
       -7.44       -8.68        1.81
       -1.43       -1.67       -0.19
       -7.47       -8.72        2.23
       -1.45       -1.69       -0.12
       -8.78      -10.25        3.12
       -1.42       -1.65       -0.04
      -10.29      -12.01        4.24
        -0.0        -0.0        -0.0
       -1.45       -1.68        0.04
        -0.0        -0.0        -0.0
       -1.55       -1.79       -0.12
       -1.45       -1.68       -0.43
       -7.28       -8.44        0.98
       -1.44       -1.67       -0.35
        -7.3       -8.46        1.37
       -1.46       -1.69       -0.27
       -7.45       -8.63        1.81
       -1.44       -1.67       -0.19
       -7.48       -8.67        2.22
       -1.45       -1.68       -0.12
       -8.84      -10.24        3.12
       -1.42       -1.65       -0.04
       -7.85       -9.09        3.22
        -0.0        -0.0        -0.0
       -1.47       -1.69        0.04
       -1.13        -1.3        -0.4
       -1.55       -1.78       -0.12
       -1.46       -1.68       -0.43
       -9.98      -11.48        1.33
       -1.45       -1.67       -0.35
       -7.34       -8.44        1.37
       -1.46       -1.68       -0.27
       -7.52       -8.65        1.81
       -1.45       -1.66       -0.19
       -8.82      -10.15        2.61
       -1.45       -1.67       -0.12
       -8.73      -10.04        3.07
       -1.43       -1.65       -0.04
       -1.64       -1.88        0.67
        -0.0        -0.0        -0.0
       -1.47       -1.68        0.04
       -1.12       -1.27       -0.39
       -1.55       -1.78       -0.12
       -1.46       -1.67       -0.43
       -8.13       -9.29        1.08
       -1.46       -1.67       -0.35
       -7.37       -8.42        1.37
       -1.46       -1.67       -0.27
       -7.55       -8.63        1.82
       -1.46       -1.66       -0.19
       -8.97      -10.24        2.65
       -1.46       -1.67       -0.12
       -8.76       -10.0        3.07
       -1.44       -1.64       -0.04
       -8.02       -9.16        3.26
        -0.0        -0.0        -0.0
       -1.48       -1.68        0.04
       -1.13       -1.28       -0.39
       -1.56       -1.77       -0.12
       -1.47       -1.66       -0.43
       -8.06       -9.15        1.07
       -1.47       -1.66       -0.35
       -8.69       -9.86        1.61
       -1.47       -1.67       -0.27
       -7.34       -8.33        1.76
       -1.46       -1.65       -0.19
       -9.02      -10.24        2.65
       -1.47       -1.67       -0.12
       -8.86      -10.06        3.09
       -1.42       -1.62       -0.04
        -0.0        -0.0         0.0
        -0.0        -0.0        -0.0
       -1.48       -1.67        0.04
       -1.14       -1.28        -0.4
       -1.57       -1.77       -0.12
       -1.48       -1.66       -0.43
      -10.03       -11.3        1.32
       -1.47       -1.66       -0.35
       -8.92      -10.05        1.65
       -1.48       -1.67       -0.27
       -7.45        -8.4        1.78
       -1.46       -1.65       -0.19
       -9.04      -10.18        2.65
       -1.48       -1.67       -0.12
      -11.35      -12.79        3.95
       -1.45       -1.63       -0.04
       -8.15       -9.18        3.29
        -0.0        -0.0        -0.0
       -1.48       -1.66        0.04
       -1.13       -1.27       -0.39
       -1.58       -1.77       -0.12
       -1.48       -1.66       -0.43
       -7.18       -8.03        0.94
       -1.47       -1.65       -0.35
       -8.73       -9.76        1.61
       -1.49       -1.67       -0.27
       -7.49       -8.38        1.78
       -1.47       -1.64       -0.19
       -8.76        -9.8        2.56
       -1.48       -1.65       -0.12
      -11.15      -12.48        3.86
       -1.46       -1.63       -0.04
       -8.22       -9.19         3.3
        -0.0        -0.0        -0.0
       -1.49       -1.65        0.04
       -1.13       -1.26       -0.39
       -1.58       -1.76       -0.12
       -1.49       -1.66       -0.43
